-58.183022 72.139977 42.894997 -0.916785 0.172013 0.360439
-57.309025 73.806976 44.123997 -0.887555 0.204407 0.412872
-56.287025 75.581978 45.258995 -0.859146 0.227499 0.458380
-55.116028 80.995979 44.691998 -0.840138 0.227915 0.492161
-53.796032 86.823975 44.307995 -0.825233 0.215949 0.521879
-52.330032 93.046974 44.112995 -0.808605 0.202808 0.552293
-50.720036 99.641975 44.105995 -0.789676 0.188665 0.583795
-48.968037 106.586983 44.285995 -0.768583 0.173154 0.615871
-47.080040 113.856979 44.652996 -0.745254 0.156331 0.648195
-45.064041 121.423981 45.196995 -0.719280 0.138321 0.680811
-42.926044 129.260986 45.911999 -0.690338 0.119027 0.713629
-40.674049 137.340988 46.789001 -0.658584 0.098268 0.746063
-38.317055 145.634979 47.824001 -0.624322 0.075846 0.777476
-35.867054 154.112991 49.013000 -0.587048 0.051782 0.807894
-33.333057 162.743988 50.348999 -0.545408 0.022784 0.837861
-32.692062 171.499985 50.611000 -0.535875 0.006533 0.844272
-53.796024 65.817978 18.718998 -0.616405 -0.288488 -0.732680
-52.330025 66.263977 17.404999 -0.564142 -0.288060 -0.773800
-50.720024 66.734978 16.140999 -0.511471 -0.284840 -0.810718
-48.968021 67.228973 14.950998 -0.453520 -0.284126 -0.844744
-47.080025 67.729980 13.857998 -0.390899 -0.286433 -0.874731
-45.064022 68.224976 12.884998 -0.324110 -0.292373 -0.899706
-42.926022 68.690979 12.053998 -0.254638 -0.302096 -0.918639
-40.674023 69.106987 11.381998 -0.186502 -0.314562 -0.930735
-38.317024 69.446983 10.877998 -0.123353 -0.328520 -0.936407
-35.867023 69.685982 10.547998 -0.067802 -0.342686 -0.937000
-33.333023 69.798988 10.389998 -0.022191 -0.355646 -0.934357
-30.726023 69.759987 10.397999 0.012805 -0.366132 -0.930475
-28.058023 69.551987 10.558999 0.037496 -0.373616 -0.926825
-25.340023 69.158981 10.856999 0.052946 -0.377884 -0.924338
-22.586023 68.570984 11.270999 0.058652 -0.374153 -0.925511
-19.805023 67.776993 11.764999 0.058925 -0.365171 -0.929074
-17.010023 66.774994 12.329000 0.057025 -0.355901 -0.932782
-14.211023 65.574989 12.944999 0.051882 -0.344701 -0.937278
-56.287022 72.344978 18.322998 -0.744152 -0.295170 -0.599260
-57.309021 72.343979 19.719997 -0.805076 -0.264564 -0.530903
-58.183022 72.454979 21.139997 -0.859679 -0.229505 -0.456376
-58.912022 72.688980 22.562998 -0.904965 -0.193220 -0.379084
-59.498024 73.056976 23.969997 -0.941181 -0.156073 -0.299698
-59.945026 76.157974 23.993998 -0.969510 -0.115375 -0.216191
-60.257027 79.646980 23.855999 -0.987501 -0.075814 -0.138179
-60.440025 83.487976 23.505999 -0.997020 -0.038142 -0.067056
-60.500031 87.599976 22.944998 -1.000000 -0.000454 -0.000508
-60.440029 92.054970 22.362999 -0.997709 0.031518 0.059864
-60.257030 96.909973 22.010998 -0.992146 0.053220 0.113198
-59.945034 102.140968 21.922998 -0.984494 0.067318 0.161990
-59.498035 107.732971 22.105999 -0.975240 0.075622 0.207817
-58.912037 113.671967 22.561998 -0.964534 0.079280 0.251771
-58.183041 119.941971 23.289999 -0.952351 0.079130 0.294562
-57.309040 126.525970 24.284998 -0.938496 0.075796 0.336868
-56.287045 133.403976 25.537998 -0.922724 0.069646 0.379116
-55.116051 140.556976 27.040998 -0.904896 0.060779 0.421271
-53.796051 147.964966 28.783998 -0.884792 0.049248 0.463377
-52.330055 155.605972 30.758995 -0.862194 0.035006 0.505368
-50.720058 163.458969 32.955997 -0.838252 0.015390 0.545066
-50.424061 171.499969 33.279995 -0.831935 0.004125 0.554858
-5.897026 71.001991 11.050000 0.020480 -0.411740 -0.911071
-3.188025 67.194992 12.712000 0.010846 -0.368846 -0.929427
-0.500023 63.200996 14.205000 0.000041 -0.337505 -0.941324
2.187975 67.195000 12.712000 -0.010826 -0.368871 -0.929418
4.896974 71.001999 11.050000 -0.020514 -0.411701 -0.911088
7.642972 74.588997 9.252000 -0.027591 -0.450099 -0.892552
55.078926 191.500015 22.604002 0.921141 0.125652 0.368389
53.683933 171.500015 25.770002 0.902951 0.005251 0.429711
54.100937 171.500015 24.834002 0.913337 0.005451 0.407169
55.271935 171.500015 22.080002 0.932193 0.004436 0.361934
55.069935 171.500015 22.600002 0.932081 0.004432 0.362223
56.292934 171.500015 19.300001 0.948017 0.005432 0.318174
55.947937 171.500015 20.338001 0.940411 0.005547 0.339994
55.286934 163.896011 22.238003 0.931559 0.012186 0.363385
10.417972 76.021004 8.408000 -0.033483 -0.469070 -0.882526
10.417972 77.935997 7.363000 -0.034152 -0.489811 -0.871160
13.210972 77.268997 7.612001 -0.040784 -0.479997 -0.876322
13.210971 79.161003 6.544001 -0.038576 -0.501122 -0.864517
16.009970 80.203003 5.802001 -0.039758 -0.510610 -0.858893
16.009972 78.330002 6.886001 -0.037056 -0.493974 -0.868686
18.804970 79.208000 6.251001 -0.040554 -0.505201 -0.862049
18.804970 81.066002 5.155001 -0.036984 -0.518074 -0.854536
21.585970 79.907997 5.726001 -0.033475 -0.501405 -0.864565
21.585970 81.757004 4.621001 -0.030066 -0.523569 -0.851453
24.339970 80.438011 5.325001 -0.021818 -0.504412 -0.863188
24.339970 82.283005 4.213001 -0.018852 -0.527601 -0.849283
27.057970 80.813011 5.060001 -0.004828 -0.506310 -0.862338
27.057970 82.659004 3.940001 -0.003193 -0.530949 -0.847398
29.725969 81.048004 4.937001 0.016753 -0.507815 -0.861303
29.725967 82.899010 3.807002 0.016457 -0.533945 -0.845359
32.332970 81.158005 4.959002 0.042583 -0.509332 -0.859516
32.332970 83.018005 3.815001 0.039449 -0.537153 -0.842562
34.866970 81.157005 5.126001 0.071796 -0.511333 -0.856378
34.866970 83.030006 3.963001 0.064835 -0.541217 -0.838380
37.316971 81.064011 5.431002 0.102862 -0.514557 -0.851264
37.316971 82.949005 4.243001 0.090551 -0.547094 -0.832159
39.673969 80.892006 5.864002 0.133834 -0.519940 -0.843654
39.673969 82.788010 4.643002 0.119928 -0.551583 -0.825454
41.925968 80.654007 6.411002 0.168576 -0.523867 -0.834953
41.925968 82.583008 5.154002 0.162740 -0.547808 -0.820623
44.063969 80.388008 7.063002 0.218915 -0.518017 -0.826883
44.063965 82.362007 5.795002 0.217084 -0.538572 -0.814135
46.079971 80.126015 7.839002 0.281252 -0.505538 -0.815677
46.079967 82.123016 6.562002 0.276615 -0.527947 -0.802967
47.967968 79.861015 8.732002 0.348368 -0.491219 -0.798338
47.967964 81.893013 7.445002 0.343644 -0.513237 -0.786446
49.719971 79.621017 9.733002 0.421625 -0.472701 -0.773813
49.719967 81.690018 8.430002 0.415973 -0.494831 -0.762961
51.329971 79.424019 10.826002 0.498330 -0.450113 -0.740990
51.329967 81.534012 9.506001 0.492016 -0.472122 -0.731451
52.795971 79.288017 11.998002 0.575688 -0.423455 -0.699478
52.795967 81.439018 10.656002 0.568433 -0.445640 -0.691584
54.115971 79.229012 13.232002 0.651392 -0.392916 -0.649080
54.115967 81.421013 11.863002 0.643513 -0.415166 -0.643061
55.286968 79.260017 14.510002 0.722718 -0.359002 -0.590589
55.286964 81.495018 13.107003 0.717889 -0.379123 -0.583868
56.308964 79.394012 15.810001 0.789545 -0.321021 -0.523033
56.308964 83.945015 12.923003 0.799924 -0.325491 -0.504160
57.182964 81.995018 15.693003 0.857514 -0.269437 -0.438261
57.182964 86.788017 12.695003 0.867484 -0.267438 -0.419463
58.497967 88.354012 15.191002 0.946905 -0.169229 -0.273372
57.911964 84.990013 15.504002 0.910712 -0.215877 -0.352137
57.911961 90.004013 12.370003 0.914779 -0.217248 -0.340561
58.497963 93.541016 11.911003 0.950672 -0.164174 -0.263190
58.944962 92.031013 14.715002 0.972911 -0.120348 -0.197383
58.944962 97.473015 11.457003 0.976684 -0.106863 -0.186197
59.256962 96.102013 14.224003 0.989866 -0.069720 -0.123712
59.256958 101.841019 11.174003 0.991459 -0.059180 -0.116217
59.439957 100.608017 13.899003 0.997897 -0.029111 -0.057923
59.439957 106.624023 11.071003 0.998179 -0.024822 -0.054972
59.499958 105.517014 13.772003 1.000000 -0.000435 -0.000335
59.499954 111.787018 11.181003 1.000000 -0.000369 -0.000272
59.439953 110.795013 13.879003 0.998468 0.019590 0.051754
59.439953 117.302017 11.539002 0.998609 0.016635 0.050036
59.256954 116.415024 14.257002 0.994387 0.033103 0.100488
59.256950 123.140007 12.180003 0.994822 0.027877 0.097735
58.944950 122.355019 14.932001 0.988252 0.041399 0.147120
58.944950 129.277008 13.125003 0.988998 0.034383 0.143877
58.497952 128.598022 15.905003 0.980268 0.045331 0.192403
58.497948 135.697021 14.374002 0.981270 0.036765 0.189095
57.911945 135.128021 17.171001 0.970465 0.045428 0.236926
57.911945 142.384018 15.922003 0.971623 0.035451 0.233863
57.182945 141.928009 18.725002 0.958750 0.042048 0.281122
57.182941 149.323013 17.761002 0.959930 0.030920 0.278529
56.308941 148.981018 20.558002 0.944906 0.035650 0.325394
56.308937 156.499008 19.872002 0.945957 0.023565 0.323435
55.286938 156.271011 22.653002 0.928680 0.026621 0.369925
54.115936 163.783020 24.993002 0.912270 0.014020 0.409350
54.882935 171.500015 23.081001 0.922376 0.005060 0.386261
52.795937 163.672012 27.710001 0.890858 0.014740 0.454042
54.115940 156.046021 25.409002 0.908865 0.029548 0.416044
55.286942 148.640015 23.340002 0.927340 0.040219 0.372052
56.308945 141.472015 21.523003 0.943342 0.048423 0.328270
57.182945 134.557022 19.975002 0.957120 0.053804 0.284653
57.911949 127.915024 18.703001 0.968942 0.055939 0.240877
58.497952 121.562012 17.713001 0.978984 0.054513 0.196515
58.944954 115.517014 17.010002 0.987300 0.049087 0.151096
59.256958 109.794006 16.599003 0.993828 0.038917 0.103877
59.439957 104.409012 16.473001 0.998285 0.022922 0.053874
59.499962 99.384018 16.604002 1.000000 -0.000529 -0.000426
59.439960 94.749016 16.955002 0.997509 -0.034270 -0.061655
59.256962 90.537018 17.489002 0.988296 -0.078160 -0.131000
58.944965 86.713013 17.993002 0.971119 -0.122932 -0.204486
58.497967 83.196014 18.306002 0.945043 -0.166142 -0.281584
57.911964 80.042015 18.467001 0.905191 -0.214885 -0.366679
57.182968 77.281013 18.528002 0.851497 -0.263318 -0.453450
56.308968 77.078018 17.181002 0.794315 -0.301873 -0.527197
55.286968 76.989014 15.843002 0.729789 -0.337921 -0.594321
54.115971 77.002014 14.536001 0.658241 -0.371537 -0.654736
52.795971 77.105019 13.278002 0.582292 -0.401686 -0.706813
51.329971 77.283012 12.086002 0.504436 -0.428021 -0.749895
49.719971 77.521019 10.976002 0.427196 -0.450406 -0.783989
47.967968 77.799019 9.963002 0.353398 -0.468645 -0.809618
46.079971 78.091019 9.061002 0.283356 -0.484811 -0.827447
44.063969 78.407005 8.274002 0.226316 -0.492820 -0.840184
41.925968 78.712006 7.583002 0.186126 -0.489501 -0.851907
39.673969 78.964005 6.999002 0.149676 -0.484655 -0.861804
37.316971 79.152008 6.538002 0.112567 -0.482251 -0.868771
34.866970 79.263008 6.213002 0.076727 -0.481458 -0.873104
32.332970 79.279007 6.032001 0.043949 -0.481609 -0.875283
29.725969 79.181007 6.001001 0.015553 -0.482086 -0.875986
27.057970 78.953011 6.118001 -0.007818 -0.482438 -0.875895
24.339970 78.579010 6.380001 -0.026694 -0.484000 -0.874661
21.585970 78.043999 6.777001 -0.043160 -0.483815 -0.874105
18.804972 77.458000 7.296000 -0.043786 -0.476429 -0.878122
16.009972 76.439003 7.920001 -0.040254 -0.464753 -0.884525
13.210972 75.358002 8.630001 -0.042719 -0.458134 -0.887856
-14.211028 79.153992 6.544999 0.038684 -0.500811 -0.864692
-14.211029 81.025993 5.428999 0.036519 -0.521882 -0.852235
-17.010029 80.194992 5.803999 0.039641 -0.510340 -0.859059
-17.010029 82.048996 4.669999 0.036974 -0.531454 -0.846280
-19.805029 81.056984 5.158999 0.036732 -0.517596 -0.854836
-19.805029 82.896988 4.011999 0.033865 -0.539023 -0.841610
-22.586029 81.745987 4.626999 0.029681 -0.522968 -0.851835
-22.586029 83.576988 3.468999 0.026918 -0.545078 -0.837953
-25.340029 82.271988 4.221999 0.018142 -0.526775 -0.849811
-25.340029 84.098984 3.053999 0.016242 -0.550245 -0.834845
-28.058029 82.647987 3.951999 0.002334 -0.530057 -0.847959
-28.058029 84.475983 2.770998 0.002071 -0.555026 -0.831831
-30.726028 82.889984 3.820999 -0.017262 -0.533333 -0.845729
-30.726028 84.721985 2.624999 -0.014964 -0.560134 -0.828267
-33.333027 83.009987 3.830998 -0.039718 -0.537130 -0.842564
-33.333027 84.849983 2.612998 -0.034515 -0.565469 -0.824047
-35.867027 83.023987 3.976999 -0.064508 -0.541667 -0.838114
-35.867027 84.872986 2.734999 -0.055234 -0.571741 -0.818573
-38.317028 82.946983 4.252998 -0.090052 -0.547526 -0.831929
-38.317028 84.800987 2.981998 -0.078114 -0.577784 -0.812443
-40.674026 82.788979 4.648998 -0.118052 -0.553020 -0.824762
-40.674026 84.653976 3.350998 -0.113592 -0.575873 -0.809609
-42.926025 82.568977 5.162998 -0.160847 -0.549303 -0.819996
-42.926025 84.479980 3.854998 -0.162709 -0.567047 -0.807455
-45.064026 82.340981 5.807998 -0.218657 -0.537417 -0.814477
-45.064026 84.285980 4.490998 -0.216004 -0.558450 -0.800922
-47.080029 82.109978 6.577998 -0.279729 -0.525531 -0.803473
-47.080029 84.083977 5.247998 -0.274198 -0.548388 -0.789991
-48.968025 81.885979 7.460999 -0.345154 -0.512033 -0.786569
-48.968025 83.891975 6.114998 -0.338845 -0.534900 -0.773993
-50.720028 81.687981 8.444998 -0.416244 -0.494646 -0.762932
-50.720028 83.727974 7.082998 -0.409548 -0.517241 -0.751486
-52.330029 81.533974 9.517998 -0.491198 -0.472814 -0.731555
-52.330029 83.609978 8.135998 -0.483722 -0.495391 -0.721526
-53.796028 81.439980 10.664998 -0.567361 -0.446662 -0.691805
-53.796028 83.553978 9.258998 -0.559299 -0.469185 -0.683410
-55.116028 81.421974 11.869997 -0.634155 -0.421474 -0.648234
-55.116028 83.577980 10.431997 -0.638896 -0.435728 -0.633998
-56.287056 163.899963 22.205997 -0.932123 0.011100 0.361971
-57.012058 171.499969 20.158998 -0.941133 0.004740 0.338003
-57.309055 164.014969 19.424997 -0.948607 0.010206 0.316291
-57.309052 156.499969 19.832998 -0.945986 0.023544 0.323350
-58.183052 156.728973 17.035997 -0.960734 0.020393 0.276722
-58.183048 149.317963 17.727999 -0.959921 0.031196 0.278530
-58.912048 149.660965 14.925999 -0.972463 0.026286 0.231570
-58.912048 142.371964 15.898998 -0.971613 0.035626 0.233877
-59.498051 142.827972 13.102997 -0.982031 0.028806 0.186509
-59.498047 135.678970 14.352999 -0.981275 0.036735 0.189076
-59.945045 136.244965 11.573997 -0.989576 0.027827 0.141300
-59.945042 129.255966 13.100997 -0.989005 0.034273 0.143853
-60.257042 129.927963 10.349998 -0.995161 0.023043 0.095513
-60.257042 123.116966 12.149997 -0.994827 0.027791 0.097710
-60.440041 123.890968 9.433997 -0.998719 0.013944 0.048640
-60.440037 117.278969 11.504997 -0.998610 0.016614 0.050028
-60.500038 111.764969 11.145997 -1.000000 -0.000375 -0.000275
-60.500038 118.157967 8.808997 -1.000000 -0.000320 -0.000218
-60.440033 106.602966 11.039997 -0.998175 -0.024910 -0.055005
-60.440037 112.756973 8.447997 -0.998390 -0.021173 -0.052616
-60.257034 107.717972 8.317997 -0.992600 -0.050598 -0.110386
-60.257034 101.823967 11.150997 -0.991421 -0.059532 -0.116363
-59.945034 103.073967 8.387997 -0.980289 -0.091229 -0.175245
-59.945030 97.462967 11.445997 -0.976516 -0.107708 -0.186590
-59.498032 98.847969 8.648997 -0.957375 -0.146552 -0.248908
-59.498032 93.539978 11.914997 -0.950451 -0.164885 -0.263547
-58.912029 95.059975 9.092998 -0.921184 -0.209907 -0.327657
-58.912029 90.003975 12.374997 -0.914679 -0.217506 -0.340665
-58.183029 91.658974 9.546997 -0.874889 -0.266335 -0.404519
-58.183025 86.785980 12.703998 -0.867415 -0.267620 -0.419489
-57.309029 88.581978 9.898997 -0.815865 -0.319846 -0.481729
-57.309025 83.944977 12.930997 -0.800105 -0.325260 -0.504021
-56.287025 85.883980 10.174997 -0.733932 -0.381174 -0.562184
-56.287025 81.495979 13.110997 -0.712949 -0.380473 -0.589019
-55.116028 79.229980 13.241997 -0.654754 -0.393502 -0.645332
-53.796028 79.288979 12.010998 -0.574966 -0.424214 -0.699612
-52.330029 79.421974 10.840998 -0.498516 -0.450041 -0.740908
-50.720028 79.613976 9.748998 -0.423265 -0.471499 -0.773651
-48.968025 79.845978 8.747998 -0.351341 -0.488997 -0.798400
-47.080029 80.102974 7.851998 -0.282816 -0.504364 -0.815863
-45.064026 80.373978 7.072998 -0.216797 -0.519562 -0.826471
-42.926025 80.655975 6.417998 -0.166585 -0.525530 -0.834307
-40.674026 80.890976 5.873998 -0.133217 -0.520652 -0.843312
-38.317028 81.057983 5.444998 -0.102367 -0.515211 -0.850928
-35.867027 81.148987 5.141999 -0.072007 -0.511382 -0.856331
-33.333027 81.146988 4.974998 -0.043388 -0.508718 -0.859839
-30.726027 81.035988 4.950999 -0.017748 -0.507029 -0.861746
-28.058027 80.800987 5.069999 0.003974 -0.505590 -0.862765
-25.340027 80.425987 5.332999 0.021201 -0.503851 -0.863530
-22.586027 79.896988 5.730999 0.033074 -0.500787 -0.864938
-19.805027 79.197983 6.253999 0.040099 -0.496095 -0.867342
-17.010027 78.321991 6.886999 0.042505 -0.489188 -0.871142
-14.211028 77.261993 7.612000 0.040184 -0.479862 -0.876423
-56.273056 171.499969 22.079998 -0.933443 0.003661 0.358707
-57.295055 171.499969 19.300999 -0.948716 0.004804 0.316093
-57.933056 171.499969 17.362999 -0.956772 0.003263 0.290820
-58.109066 191.499969 16.768997 -0.962931 0.001507 0.269742
-53.461063 191.499969 28.198997 -0.885038 0.001114 0.465517
-53.785061 171.499969 27.551998 -0.893590 0.004277 0.448864
-52.319061 171.499969 30.219997 -0.870407 0.004598 0.492312
-48.732059 171.499969 35.687996 -0.801323 0.005347 0.598209
-46.573071 191.499969 38.435997 -0.769917 0.001011 0.638143
-47.077061 171.499969 37.814995 -0.788742 0.005272 0.614702
-46.924061 171.499969 38.010998 -0.772836 0.004694 0.634589
-45.063061 171.499969 40.172997 -0.759076 0.004614 0.650986
-58.898056 171.499969 13.706997 -0.975377 0.004178 0.220506
-59.528065 191.499969 10.756997 -0.984922 0.001402 0.172993
-60.321064 191.499969 4.630997 -0.997247 0.001343 0.074139
-59.933056 171.499969 8.140997 -0.992395 0.003417 0.123048
-50.720032 93.380974 -0.476002 -0.441780 -0.573099 -0.690208
-52.330032 95.597977 -1.060002 -0.552973 -0.516104 -0.654108
-50.720032 95.306976 -2.066002 -0.462873 -0.566665 -0.681645
-48.968029 95.147980 -2.988002 -0.367250 -0.612028 -0.700392
-48.968029 93.335976 -1.395002 -0.332828 -0.623589 -0.707363
-47.080032 95.115974 -3.803002 -0.267336 -0.656534 -0.705333
-47.080032 93.383980 -2.186002 -0.250263 -0.652595 -0.715184
-45.064030 95.164978 -4.478002 -0.191758 -0.681428 -0.706318
-45.064030 93.453979 -2.864002 -0.193769 -0.663526 -0.722625
-42.926029 95.220978 -5.028002 -0.142768 -0.689182 -0.710384
-42.926029 93.532974 -3.433002 -0.146267 -0.669942 -0.727863
-40.674030 95.270981 -5.460002 -0.102490 -0.693110 -0.713508
-40.674030 93.600975 -3.878002 -0.105196 -0.674173 -0.731043
-38.317032 95.296974 -5.762002 -0.068509 -0.695122 -0.715620
-35.867031 95.280983 -5.928002 -0.040437 -0.695592 -0.717299
-38.317032 93.639977 -4.193002 -0.070653 -0.676366 -0.733169
-35.867031 93.633987 -4.370002 -0.042178 -0.676793 -0.734964
-33.333031 95.204987 -5.953001 -0.018093 -0.694517 -0.719249
-33.333031 93.562988 -4.407001 -0.019553 -0.675626 -0.736985
-30.726032 95.049988 -5.834002 -0.000705 -0.691958 -0.721938
-30.726032 93.409988 -4.301002 -0.001052 -0.673901 -0.738821
-28.058033 94.802986 -5.573001 0.012841 -0.688817 -0.724822
-28.058033 93.165985 -4.053001 0.013608 -0.671947 -0.740475
-25.340033 94.452988 -5.172001 0.022748 -0.685334 -0.727873
-25.340033 92.818985 -3.667001 0.022016 -0.666647 -0.745048
-22.586033 93.987984 -4.636001 0.027629 -0.678859 -0.733749
-22.586033 92.338982 -3.152001 0.025716 -0.657684 -0.752855
-19.805033 93.381989 -3.974001 0.028646 -0.668985 -0.742724
-19.805033 91.714981 -2.515001 0.027901 -0.647978 -0.761148
-17.010033 92.625992 -3.195001 0.028593 -0.658476 -0.752059
-17.010033 90.941994 -1.759001 0.028832 -0.637833 -0.769635
-14.211033 91.716995 -2.306001 0.027260 -0.647109 -0.761910
-14.211032 90.010994 -0.895001 0.027922 -0.626656 -0.778796
-11.418032 88.916992 0.068000 0.024933 -0.615001 -0.788132
-11.418032 90.645996 -1.315000 0.022193 -0.636179 -0.771223
10.417964 101.675003 -12.189000 -0.022167 -0.758925 -0.650800
13.210964 99.669998 -10.014999 -0.025465 -0.741307 -0.670683
10.417965 98.730003 -8.890999 -0.021875 -0.725129 -0.688266
7.642964 99.165001 -9.269000 -0.018595 -0.732862 -0.680123
-11.418035 97.192993 -7.293001 0.021611 -0.712940 -0.700892
-8.643034 99.161995 -9.268001 0.017755 -0.731235 -0.681894
-8.643033 96.070992 -6.095000 0.016480 -0.694416 -0.719385
-5.897034 96.388992 -6.347001 0.012583 -0.701126 -0.712926
-3.188032 89.953995 -0.574000 0.006766 -0.627581 -0.778522
-5.897033 93.145996 -3.314000 0.012859 -0.663981 -0.747639
-3.188033 93.340996 -3.452000 0.006384 -0.666244 -0.745707
-0.500032 90.019989 -0.616000 -0.000121 -0.634983 -0.772526
-0.500031 86.493996 2.090000 -0.000089 -0.595008 -0.803720
2.187968 89.954994 -0.576000 -0.006965 -0.627582 -0.778519
2.187967 93.341995 -3.453000 -0.006549 -0.666236 -0.745712
4.896966 93.148003 -3.317000 -0.013098 -0.663949 -0.747663
4.896965 96.388992 -6.348000 -0.012646 -0.700986 -0.713063
7.642965 96.070999 -6.097000 -0.017818 -0.695584 -0.718224
13.210966 95.016998 -5.267999 -0.027129 -0.686439 -0.726681
10.417966 93.998001 -4.223000 -0.021444 -0.675524 -0.737027
10.417966 95.614998 -5.739000 -0.022558 -0.697252 -0.716471
57.182957 112.317017 -2.816997 0.927406 -0.166789 -0.334814
56.308956 108.172012 -2.819998 0.889568 -0.222757 -0.398808
56.308956 110.800018 -4.250998 0.893735 -0.211821 -0.395436
55.286957 109.438019 -5.617998 0.852898 -0.259591 -0.452965
55.286957 106.913017 -4.133998 0.840786 -0.280167 -0.463233
54.115959 108.227013 -6.907998 0.799475 -0.316085 -0.510814
54.115959 105.809013 -5.372998 0.782460 -0.340239 -0.521531
52.795959 107.165024 -8.111998 0.735547 -0.376320 -0.563341
52.795959 104.855019 -6.529998 0.712793 -0.403716 -0.573532
51.329960 106.246017 -9.222998 0.661229 -0.438919 -0.608379
51.329960 104.047012 -7.595998 0.632742 -0.466612 -0.617989
49.719959 105.465012 -10.228998 0.577661 -0.500375 -0.644929
49.719963 101.308006 -6.940998 0.543457 -0.523679 -0.656060
47.967960 102.806007 -9.500998 0.486024 -0.556033 -0.674247
47.967960 100.836014 -7.860998 0.458004 -0.571484 -0.680910
46.079964 102.346008 -10.329998 0.400894 -0.601803 -0.690736
46.079964 100.476013 -8.686998 0.371448 -0.616278 -0.694426
44.063961 101.990013 -11.051998 0.317081 -0.643818 -0.696389
44.063961 100.224007 -9.401998 0.283387 -0.658688 -0.697010
41.925961 101.732010 -11.649998 0.233534 -0.683364 -0.691720
41.925961 100.073013 -9.990998 0.189546 -0.700598 -0.687921
39.673962 101.564011 -12.108998 0.146194 -0.722418 -0.675825
39.673962 98.481010 -8.749998 0.105441 -0.726368 -0.679170
37.316963 100.004997 -10.709998 0.070252 -0.745546 -0.662741
37.316963 98.479004 -9.023999 0.064660 -0.731068 -0.679234
34.866962 99.960007 -10.836998 0.036032 -0.748594 -0.662049
34.866962 98.445007 -9.166998 0.037547 -0.731385 -0.680931
32.332962 99.870010 -10.827999 0.014624 -0.747504 -0.664097
32.332962 98.360008 -9.169999 0.015529 -0.730506 -0.682730
29.725964 99.715004 -10.673999 -0.002235 -0.745344 -0.666677
29.725964 98.206009 -9.027998 -0.001619 -0.728408 -0.685141
27.057964 99.480011 -10.374999 -0.014791 -0.742039 -0.670194
27.057964 97.967010 -8.739999 -0.014527 -0.725158 -0.688430
24.339964 99.151001 -9.930999 -0.023428 -0.737623 -0.674807
24.339964 97.630997 -8.309999 -0.023131 -0.720465 -0.693106
21.585964 98.711998 -9.346999 -0.028382 -0.731755 -0.680977
21.585964 97.180000 -7.739999 -0.027940 -0.714108 -0.699478
18.804964 98.149002 -8.625999 -0.030285 -0.724106 -0.689023
18.804964 96.598000 -7.035999 -0.029870 -0.706418 -0.707165
16.009964 97.448997 -7.776999 -0.029812 -0.715116 -0.698370
16.009966 95.879997 -6.208000 -0.029546 -0.697416 -0.716057
13.210965 96.607002 -6.809999 -0.025216 -0.706371 -0.707392
7.642966 92.816002 -3.084000 -0.017178 -0.656600 -0.754043
4.896967 89.753998 -0.452000 -0.013844 -0.625097 -0.780424
2.187969 86.426994 2.125000 -0.007592 -0.587337 -0.809307
-0.500030 82.839989 4.611000 -0.000052 -0.553723 -0.832701
-3.188031 86.425995 2.126000 0.007504 -0.587265 -0.809360
-5.897032 89.751991 -0.449000 0.013736 -0.625010 -0.780496
-8.643032 92.813995 -3.080000 0.016982 -0.656587 -0.754059
-11.418033 93.995995 -4.219001 0.021212 -0.675508 -0.737048
-56.287033 104.423981 -2.607002 -0.828704 -0.301340 -0.471639
-57.309032 108.155968 -2.842003 -0.884468 -0.231295 -0.405239
-56.287033 106.899979 -4.150002 -0.837417 -0.285813 -0.465880
-55.116035 105.799980 -5.383002 -0.781078 -0.342587 -0.522064
-55.116035 103.432983 -3.791002 -0.761214 -0.368686 -0.533502
-53.796036 104.849983 -6.533002 -0.710938 -0.406337 -0.573984
-53.796036 102.593979 -4.897002 -0.686692 -0.431227 -0.585232
-52.330036 104.045967 -7.593002 -0.631727 -0.467859 -0.618085
-52.330036 99.766975 -4.305002 -0.598588 -0.490682 -0.633185
-50.720036 101.307983 -6.938003 -0.538680 -0.526825 -0.657480
-50.720032 97.271980 -3.676002 -0.498188 -0.547859 -0.672056
-48.968029 98.899979 -6.220002 -0.435145 -0.582743 -0.686338
-48.968029 97.003975 -4.596002 -0.400762 -0.598366 -0.693792
-47.080032 98.644974 -7.042002 -0.339111 -0.630475 -0.698216
-47.080032 96.857979 -5.417002 -0.303502 -0.644652 -0.701648
-45.064030 98.501976 -7.752002 -0.246554 -0.673200 -0.697146
-45.064030 96.827980 -6.119002 -0.209566 -0.685033 -0.697719
-42.926029 98.463974 -8.332002 -0.159399 -0.709941 -0.685985
-42.926029 96.866974 -6.668002 -0.141407 -0.706483 -0.693459
-40.674034 98.481979 -8.747002 -0.098918 -0.728340 -0.678038
-40.674030 96.897980 -7.082002 -0.099653 -0.711697 -0.695383
-38.317036 98.479980 -9.019002 -0.064199 -0.731496 -0.678817
-38.317032 96.910980 -7.371002 -0.066333 -0.713531 -0.697476
-35.867035 98.445984 -9.161001 -0.037233 -0.731763 -0.680541
-35.867031 96.885986 -7.525002 -0.038854 -0.713882 -0.699187
-33.333035 98.359985 -9.162002 -0.015604 -0.730622 -0.682604
-33.333031 96.803986 -7.538002 -0.016802 -0.712812 -0.701154
-30.726032 98.203987 -9.019001 0.001355 -0.728277 -0.685282
-30.726032 96.648987 -7.407001 0.000383 -0.710346 -0.703853
-28.058033 97.963982 -8.731001 0.013714 -0.724526 -0.689111
-28.058033 96.403984 -7.132001 0.012934 -0.706532 -0.707562
-25.340033 97.622986 -8.302001 0.022165 -0.719473 -0.694167
-25.340033 96.056984 -6.718001 0.022078 -0.702136 -0.711701
-22.586033 97.168983 -7.734001 0.027805 -0.713700 -0.699899
-22.586033 95.594986 -6.166001 0.028189 -0.697081 -0.716438
-19.805033 96.591988 -7.032001 0.030543 -0.707152 -0.706402
-19.805033 95.007988 -5.482001 0.029973 -0.689259 -0.723895
-17.010033 95.879982 -6.205001 0.029850 -0.697982 -0.715493
-17.010033 94.272987 -4.678001 0.028951 -0.678610 -0.733928
-14.211034 95.016991 -5.264001 0.027073 -0.686420 -0.726701
-14.211033 93.385994 -3.763001 0.026963 -0.667070 -0.744507
-11.418033 92.339989 -2.745000 0.023325 -0.655364 -0.754953
-53.796032 98.188980 -1.610002 -0.658817 -0.451143 -0.602021
-55.116035 101.115967 -2.152002 -0.740686 -0.391600 -0.545924
-56.287033 101.995979 -1.011002 -0.809055 -0.328761 -0.487181
-57.309032 103.035980 0.195997 -0.868632 -0.260867 -0.421220
-58.183033 106.882973 -0.030002 -0.917344 -0.192559 -0.348426
-58.183037 112.295967 -2.847003 -0.928820 -0.164043 -0.332240
-58.912037 111.142967 -0.035003 -0.951191 -0.134463 -0.277768
-58.912037 116.827972 -2.616003 -0.957098 -0.114233 -0.266298
-59.498039 115.795967 0.187997 -0.972983 -0.089589 -0.212786
-59.498039 121.730972 -2.142003 -0.975800 -0.075669 -0.205153
-59.945038 120.822968 0.641997 -0.986610 -0.055593 -0.153332
-59.945042 126.985970 -1.423003 -0.987789 -0.046547 -0.148684
-60.257042 126.200974 1.328997 -0.994657 -0.030431 -0.098647
-60.257046 132.567963 -0.466003 -0.995045 -0.025176 -0.096188
-60.440041 131.904968 2.248997 -0.998775 -0.012438 -0.047893
-60.440044 138.451965 0.726997 -0.998848 -0.010095 -0.046923
-60.440048 144.169968 4.863997 -0.998916 0.007290 0.045969
-60.257050 150.679962 6.606997 -0.995756 0.010734 0.091408
-60.440048 151.011963 3.895997 -0.998952 0.005335 0.045465
-60.257053 157.638977 5.918997 -0.995854 0.006972 0.090704
-59.945053 157.413971 8.665998 -0.990544 0.010437 0.136794
-59.498058 164.358963 11.036997 -0.984517 0.005825 0.175191
-59.945057 164.472977 8.260997 -0.991664 0.004517 0.128774
-59.858059 171.499969 8.751997 -0.988909 0.002590 0.148502
-59.485058 171.499969 10.914997 -0.985249 0.001975 0.171116
-59.513058 171.499969 10.753997 -0.985342 0.001963 0.170582
-60.216057 171.499969 5.830997 -0.994919 0.001664 0.100665
-60.500050 144.608963 2.172997 -1.000000 -0.000194 -0.000080
-14.211034 96.607994 -6.808001 0.027593 -0.705449 -0.708223
-11.418034 95.614990 -5.736001 0.023134 -0.693587 -0.720001
-14.211035 98.154991 -8.392001 0.027507 -0.725890 -0.687261
-11.418035 98.726990 -8.889000 0.024222 -0.734553 -0.678119
-11.418036 101.671989 -12.185001 0.022650 -0.760357 -0.649111
-11.418036 104.436989 -15.610001 0.022179 -0.790379 -0.612217
-8.643035 102.084991 -12.581000 0.018613 -0.765939 -0.642643
-5.897035 99.466995 -9.533000 0.012817 -0.736001 -0.676859
-3.188034 96.575989 -6.494000 0.006307 -0.703043 -0.711120
-0.500033 93.404991 -3.497000 -0.000056 -0.673219 -0.739443
2.187965 96.575989 -6.495000 -0.006348 -0.703002 -0.711160
4.896964 99.468994 -9.534000 -0.017463 -0.731154 -0.681988
7.642963 102.086998 -12.583000 -0.029795 -0.763704 -0.644879
10.417963 104.436996 -15.613000 -0.022245 -0.790504 -0.612052
13.210963 102.554001 -13.356999 -0.025953 -0.773903 -0.632772
13.210963 103.928001 -15.074999 -0.027606 -0.788660 -0.614210
16.009962 103.293999 -14.405999 -0.030523 -0.781642 -0.622980
16.009962 104.640999 -16.140999 -0.030498 -0.796911 -0.603326
18.804962 103.904999 -15.323999 -0.030905 -0.789370 -0.613139
18.804962 105.228996 -17.073999 -0.030933 -0.804353 -0.593346
21.585962 104.398003 -16.105999 -0.028935 -0.795828 -0.604831
21.585962 105.703003 -17.868999 -0.029111 -0.810617 -0.584853
24.339962 104.783997 -16.743999 -0.024250 -0.801195 -0.597912
24.339962 106.077003 -18.522999 -0.019352 -0.812950 -0.582012
27.057962 105.080002 -17.239999 -0.010689 -0.802600 -0.596421
27.057961 107.654999 -20.761997 0.019246 -0.797743 -0.602690
29.725960 106.632011 -19.308998 0.034539 -0.786233 -0.616965
29.725960 108.028008 -21.033998 0.070531 -0.768481 -0.635974
32.332962 106.949013 -19.426998 0.092941 -0.755476 -0.648550
32.332962 108.443008 -21.130999 0.123857 -0.739621 -0.661529
34.866962 107.318008 -19.372997 0.152592 -0.724939 -0.671698
34.866959 108.908997 -21.058998 0.183064 -0.708520 -0.681533
37.316963 107.746010 -19.156998 0.217280 -0.692159 -0.688263
37.316959 109.434013 -20.824999 0.246367 -0.675395 -0.695086
39.673958 108.242996 -18.788998 0.285214 -0.657388 -0.697492
39.673958 110.025009 -20.441998 0.311948 -0.640940 -0.701344
41.925957 108.813011 -18.280998 0.354591 -0.621201 -0.698837
41.925957 110.685997 -19.921999 0.382155 -0.601456 -0.701575
44.063957 109.460007 -17.646998 0.428029 -0.579592 -0.693443
44.063957 111.435013 -19.260998 0.458990 -0.553210 -0.695188
46.079960 110.206009 -16.882998 0.507200 -0.528591 -0.680691
46.079960 112.287010 -18.453999 0.537300 -0.499512 -0.679556
47.967957 111.064011 -15.983998 0.586367 -0.472319 -0.658095
47.967957 113.249008 -17.507998 0.612505 -0.444075 -0.653938
49.719959 112.040009 -14.955998 0.661017 -0.414797 -0.625300
49.719959 114.329010 -16.430998 0.682727 -0.388341 -0.618930
51.329960 113.142014 -13.807998 0.728640 -0.358026 -0.583867
51.329960 115.533012 -15.231998 0.745936 -0.334020 -0.576203
52.795959 114.377007 -12.548998 0.787769 -0.303720 -0.535886
52.795956 116.867012 -13.918998 0.801022 -0.282482 -0.527795
54.115955 115.748016 -11.187998 0.838207 -0.252987 -0.483122
54.115955 118.335007 -12.501998 0.848036 -0.234488 -0.475237
55.286953 117.260017 -9.734998 0.880276 -0.206376 -0.427228
55.286953 119.942017 -10.988997 0.888796 -0.188768 -0.417622
56.308952 118.916023 -8.197998 0.915309 -0.161691 -0.368870
56.308952 124.498016 -10.521997 0.921529 -0.142850 -0.361080
57.182953 123.584007 -7.717998 0.943990 -0.118044 -0.308137
59.439938 157.859009 3.251002 0.998975 0.003447 0.045124
59.499943 151.346008 1.240003 1.000000 -0.000178 -0.000057
59.499939 158.079010 0.562003 1.000000 -0.000161 -0.000032
59.439941 151.675018 -1.449997 0.998943 -0.005812 -0.045592
59.439941 145.060013 -0.493997 0.998903 -0.007888 -0.046163
59.256947 139.022018 -1.964997 0.995340 -0.020421 -0.094235
59.256943 145.502014 -3.205997 0.995566 -0.015903 -0.092716
58.944946 139.581009 -4.714997 0.989365 -0.031200 -0.142068
58.944950 133.260010 -3.191997 0.988678 -0.038606 -0.145004
58.497952 133.939011 -5.972997 0.979561 -0.052534 -0.194167
58.497952 127.801018 -4.175997 0.977925 -0.063526 -0.199065
57.911949 128.599014 -6.974998 0.965000 -0.081004 -0.249426
57.911953 122.668007 -4.909997 0.961590 -0.096591 -0.256935
44.063957 107.535011 -16.003998 0.401063 -0.598937 -0.693125
41.925957 106.978996 -16.629998 0.328408 -0.636902 -0.697498
39.673962 106.504013 -17.125998 0.256079 -0.673524 -0.693390
37.316963 106.105011 -17.479998 0.185873 -0.708360 -0.680938
34.866962 105.776009 -17.678998 0.120051 -0.740804 -0.660906
32.332962 105.509010 -17.713999 0.054296 -0.773213 -0.631818
29.725962 103.972008 -15.813999 0.001838 -0.790809 -0.612060
27.057962 103.749001 -15.475999 -0.016009 -0.790331 -0.612471
24.339962 103.445999 -14.994999 -0.023955 -0.785977 -0.617792
21.585962 103.044998 -14.369999 -0.028781 -0.780516 -0.624473
18.804962 102.533997 -13.601999 -0.030806 -0.773876 -0.632587
16.009964 101.900002 -12.699999 -0.030440 -0.765973 -0.642152
13.210964 101.134003 -11.669999 -0.027450 -0.757132 -0.652685
16.009964 100.461998 -11.024999 -0.030331 -0.749892 -0.660865
18.804964 101.116997 -11.910999 -0.030777 -0.757972 -0.651561
21.585962 101.646004 -12.663999 -0.028739 -0.764701 -0.643743
24.339962 102.059998 -13.275999 -0.023703 -0.770205 -0.637356
27.057962 102.372002 -13.743999 -0.015609 -0.774642 -0.632208
29.725962 102.598007 -14.066999 -0.003636 -0.778021 -0.628228
32.332962 102.754997 -14.248999 0.019097 -0.777571 -0.628505
34.866962 104.287010 -15.977998 0.079313 -0.758381 -0.646968
37.316963 104.513008 -15.794998 0.152128 -0.724176 -0.672627
39.673962 104.810013 -15.456998 0.224219 -0.689628 -0.688577
41.925961 105.186996 -14.972998 0.299606 -0.652612 -0.695941
44.063961 105.648010 -14.355998 0.375929 -0.613784 -0.694224
46.079960 106.199013 -13.621998 0.447778 -0.577373 -0.682741
46.079964 104.254997 -11.975998 0.431501 -0.585988 -0.685875
44.063961 103.799011 -12.703999 0.347958 -0.628749 -0.695413
41.925961 103.436996 -13.310998 0.267973 -0.668160 -0.694084
39.673962 103.163010 -13.782998 0.189846 -0.705084 -0.683238
37.316963 102.970009 -14.106998 0.109717 -0.741530 -0.661888
34.866962 101.431007 -12.544998 0.041715 -0.762569 -0.645561
32.332962 101.335007 -12.520000 0.013494 -0.764222 -0.644812
29.725962 101.180008 -12.354999 -0.002871 -0.761885 -0.647706
27.057962 100.949013 -12.042999 -0.015126 -0.758513 -0.651482
24.339964 100.626999 -11.586999 -0.023554 -0.754118 -0.656317
21.585964 100.200996 -10.988999 -0.028623 -0.748544 -0.662467
18.804964 99.654999 -10.250999 -0.030760 -0.741472 -0.670279
16.009964 98.978996 -9.382999 -0.030098 -0.732587 -0.680008
13.210965 98.158997 -8.394000 -0.026964 -0.722899 -0.690428
57.911953 116.850014 -2.581998 0.957145 -0.114105 -0.266183
58.497955 121.754013 -2.107997 0.975791 -0.075756 -0.205167
58.944950 127.008018 -1.393997 0.987779 -0.046681 -0.148709
59.256950 132.589020 -0.441997 0.995042 -0.025253 -0.096194
59.439945 138.470016 0.748003 0.998847 -0.010104 -0.046925
59.499943 144.621017 2.197002 1.000000 -0.000197 -0.000084
59.439941 151.017014 3.930002 0.998952 0.005284 0.045457
59.196934 171.500015 6.020003 0.994672 0.002139 0.103065
59.256939 164.581009 5.549002 0.996542 0.003556 0.083010
59.256939 157.637009 5.961002 0.995852 0.006984 0.090717
59.302937 171.500015 4.629003 0.997247 0.000794 0.074143
59.439938 164.692017 2.840003 0.999057 0.001838 0.043387
59.420937 171.500015 3.085002 0.998713 0.001019 0.050707
59.439938 158.299011 -2.127997 0.998970 -0.003881 -0.045199
59.499939 164.803009 0.152003 0.999988 0.000051 -0.004876
59.256943 152.007019 -4.160997 0.995727 -0.011684 -0.091598
58.944942 145.949020 -5.953997 0.989882 -0.024272 -0.139804
58.497948 140.147018 -7.493998 0.980813 -0.042428 -0.190275
57.911949 134.622009 -8.770998 0.967609 -0.066984 -0.243403
57.182949 129.398010 -9.781998 0.948965 -0.099026 -0.299431
55.286953 125.408012 -13.310997 0.899956 -0.160299 -0.405442
59.439938 164.913010 -2.536997 0.999157 -0.001675 -0.041029
59.461937 171.500015 -1.543997 0.999752 -0.000377 -0.022266
59.436935 171.500015 -2.687997 0.999803 -0.000507 -0.019847
59.434937 171.500015 -2.799997 0.998788 -0.000243 -0.049224
59.256939 165.024017 -5.245997 0.996102 -0.003574 -0.088136
58.944939 165.137009 -7.991998 0.991080 -0.005037 -0.133171
59.224934 171.500015 -5.735997 0.995111 -0.000389 -0.098758
58.497940 158.973022 -10.359997 0.982894 -0.016015 -0.183476
57.911942 153.026016 -12.479997 0.972198 -0.030832 -0.232122
57.182941 147.314011 -14.330997 0.957887 -0.051465 -0.282494
56.308945 141.856018 -15.893997 0.939010 -0.078612 -0.334785
54.115952 129.030014 -17.136998 0.876937 -0.169608 -0.449683
52.795952 127.198013 -18.799997 0.840422 -0.207224 -0.500748
51.329956 125.492996 -20.350998 0.797645 -0.248691 -0.549468
49.719955 123.910011 -21.778997 0.748096 -0.293783 -0.595016
47.967953 122.445007 -23.073997 0.692249 -0.341631 -0.635672
46.079956 121.091011 -24.228998 0.631256 -0.390996 -0.669804
44.063953 119.844009 -25.235998 0.565667 -0.441177 -0.696694
41.925953 118.695007 -26.084997 0.497054 -0.490990 -0.715448
39.673958 117.637009 -26.770998 0.427277 -0.539423 -0.725574
37.316959 116.661011 -27.286999 0.358520 -0.585397 -0.727168
34.866959 115.761009 -27.629997 0.292386 -0.628418 -0.720834
32.332958 114.926010 -27.795998 0.231347 -0.666814 -0.708405
29.725958 114.144997 -27.786999 0.177245 -0.699462 -0.692342
27.057959 113.403999 -27.606998 0.129073 -0.728511 -0.672764
24.339960 112.697998 -27.251999 0.085867 -0.755994 -0.648922
21.585960 112.019997 -26.718000 0.048558 -0.781770 -0.621673
18.804960 111.361000 -26.002001 0.017786 -0.805766 -0.591966
16.009960 110.714996 -25.108999 -0.008772 -0.830542 -0.556887
13.210961 108.945999 -22.214001 -0.023895 -0.842034 -0.538895
16.009962 108.394997 -21.504999 -0.026936 -0.836666 -0.547050
18.804960 110.105003 -24.243000 -0.005747 -0.824183 -0.566294
21.585960 110.677002 -24.983000 0.026487 -0.798401 -0.601543
24.339960 111.266998 -25.541998 0.062418 -0.773335 -0.630917
27.057961 111.885002 -25.922998 0.104949 -0.746382 -0.657191
29.725960 112.538010 -26.126999 0.153099 -0.717756 -0.679255
32.332958 113.232010 -26.158998 0.205807 -0.687514 -0.696397
34.866959 113.973007 -26.025997 0.264286 -0.653300 -0.709473
37.316959 114.776009 -25.725998 0.329651 -0.612732 -0.718254
39.673958 115.655006 -25.254997 0.399697 -0.567205 -0.720084
41.925957 116.616997 -24.617998 0.471394 -0.518716 -0.713247
44.063957 117.670013 -23.818998 0.542745 -0.468197 -0.697294
46.079956 118.823013 -22.865997 0.611250 -0.416928 -0.672715
47.967953 120.082008 -21.765999 0.675436 -0.365798 -0.640295
49.719955 121.455009 -20.528997 0.734441 -0.315955 -0.600640
51.329956 122.947006 -19.160997 0.786912 -0.268596 -0.555540
52.795956 124.564018 -17.672998 0.832307 -0.224630 -0.506760
54.115952 126.309013 -16.073998 0.870997 -0.184619 -0.455280
55.286949 128.186020 -14.373997 0.901747 -0.151280 -0.404928
54.115955 123.618011 -14.945998 0.864288 -0.200329 -0.461384
52.795956 121.962013 -16.482998 0.823094 -0.242950 -0.513314
51.329956 120.438011 -17.909998 0.774842 -0.289344 -0.562049
49.719955 119.039009 -19.219997 0.719121 -0.339082 -0.606538
47.967953 117.761009 -20.400997 0.656701 -0.390940 -0.644910
46.079960 116.598007 -21.446999 0.589158 -0.443491 -0.675432
44.063957 115.542007 -22.349998 0.517457 -0.495884 -0.697379
41.925957 114.588013 -23.099998 0.443371 -0.546931 -0.710133
39.673958 113.725014 -23.690998 0.369871 -0.595131 -0.713452
37.316959 112.946007 -24.118998 0.300328 -0.638097 -0.708967
34.866959 112.238007 -24.387999 0.237701 -0.673864 -0.699575
32.332958 111.586014 -24.499998 0.180396 -0.705380 -0.685489
29.725960 110.982010 -24.445997 0.127241 -0.735358 -0.665626
27.057961 110.418999 -24.217999 0.079356 -0.763568 -0.640832
24.339960 109.892998 -23.813997 0.037786 -0.789844 -0.612142
21.585960 109.392998 -23.231001 -0.000403 -0.816642 -0.577145
18.804962 107.735001 -20.655001 -0.027000 -0.829896 -0.557265
16.009962 107.191002 -19.690001 -0.030419 -0.825719 -0.563261
13.210962 106.532997 -18.594000 -0.027499 -0.818007 -0.574551
13.210962 105.253998 -16.820999 -0.025962 -0.804482 -0.593410
16.009962 105.940002 -17.902999 -0.030451 -0.811584 -0.583442
18.804962 106.504997 -18.851000 -0.031008 -0.818750 -0.573313
21.585962 106.961998 -19.662001 -0.024659 -0.822019 -0.568926
24.339960 108.575996 -22.069998 0.007752 -0.807832 -0.589361
27.057961 109.009003 -22.496998 0.052355 -0.779919 -0.623687
29.725960 109.477997 -22.746998 0.099653 -0.752387 -0.651140
32.332958 109.989014 -22.823997 0.153065 -0.722735 -0.673962
34.866959 110.550011 -22.730999 0.211489 -0.691276 -0.690949
37.316959 111.168007 -22.479998 0.273037 -0.658392 -0.701406
39.673958 111.849007 -22.081999 0.339538 -0.620866 -0.706568
41.925957 112.610008 -21.533998 0.412988 -0.575363 -0.705973
44.063957 113.463013 -20.829998 0.489531 -0.524371 -0.696702
46.079960 114.418007 -19.975998 0.564606 -0.471022 -0.677760
47.967957 115.482010 -18.980999 0.635860 -0.416899 -0.649521
49.719955 116.663010 -17.852998 0.701946 -0.363198 -0.612666
51.329956 117.965012 -16.599998 0.761251 -0.311126 -0.568944
52.795956 119.396019 -15.230998 0.812713 -0.262200 -0.520335
54.115955 120.959007 -13.754998 0.856692 -0.216916 -0.468002
55.286953 122.659012 -12.181997 0.891506 -0.178863 -0.416204
-14.211037 105.253990 -16.818001 0.025794 -0.804471 -0.593431
-25.340036 108.575981 -22.066002 -0.007228 -0.806369 -0.591369
-22.586037 106.962982 -19.660002 0.026244 -0.821414 -0.569728
-25.340036 107.317993 -20.309002 0.014574 -0.814499 -0.579982
-28.058037 107.654984 -20.758001 -0.023933 -0.795453 -0.605542
-28.058037 109.007988 -22.492002 -0.052401 -0.779901 -0.623706
-30.726036 108.026993 -21.028002 -0.070549 -0.768533 -0.635909
-30.726036 109.476982 -22.742002 -0.099469 -0.752521 -0.651013
-33.333035 108.441994 -21.126001 -0.123807 -0.739752 -0.661391
-33.333038 109.987984 -22.820002 -0.152953 -0.723012 -0.673691
-35.867035 108.908974 -21.054003 -0.182878 -0.708778 -0.681314
-35.867039 110.549980 -22.729002 -0.211192 -0.691665 -0.690650
-38.317036 109.433983 -20.823002 -0.245956 -0.675852 -0.694788
-38.317039 111.167976 -22.479002 -0.272927 -0.658512 -0.701337
-40.674034 110.024979 -20.441002 -0.311841 -0.641166 -0.701186
-40.674038 111.847977 -22.080002 -0.338774 -0.621677 -0.706222
-42.926037 110.684967 -19.920002 -0.381347 -0.602450 -0.701162
-42.926037 112.605980 -21.536001 -0.411145 -0.577473 -0.705326
-45.064037 111.430977 -19.263002 -0.457064 -0.555493 -0.694637
-45.064037 113.455978 -20.838001 -0.487603 -0.526665 -0.696324
-47.080040 112.278976 -18.462002 -0.535265 -0.502018 -0.679315
-47.080040 114.406967 -19.990002 -0.562872 -0.473166 -0.677709
-48.968037 113.237984 -17.522002 -0.610830 -0.446265 -0.654015
-48.968037 115.467979 -19.000002 -0.634587 -0.418649 -0.649640
-50.720039 114.313980 -16.451002 -0.681544 -0.390040 -0.619166
-50.720039 116.645981 -17.876002 -0.701138 -0.364391 -0.612882
-52.330040 115.515984 -15.256001 -0.745215 -0.335155 -0.576478
-52.330040 117.946983 -16.627002 -0.760742 -0.311992 -0.569151
-53.796040 116.847977 -13.946002 -0.800587 -0.283189 -0.528076
-53.796040 119.375977 -15.260002 -0.812449 -0.262727 -0.520482
-55.116039 118.314980 -12.532002 -0.845684 -0.238231 -0.477562
-55.116039 120.938972 -13.786003 -0.858510 -0.214967 -0.465564
-56.287041 125.385971 -13.342003 -0.896877 -0.165342 -0.410212
-55.116043 123.596970 -14.978003 -0.862368 -0.203369 -0.463641
-53.796040 121.941978 -16.514002 -0.822916 -0.243246 -0.513459
-52.330040 120.417976 -17.939002 -0.774471 -0.289886 -0.562282
-50.720039 119.020981 -19.246002 -0.718506 -0.339933 -0.606791
-48.968037 117.744980 -20.424002 -0.655781 -0.392164 -0.645104
-47.080040 116.583977 -21.465002 -0.587722 -0.445246 -0.675529
-45.064037 115.531967 -22.362001 -0.515786 -0.497891 -0.697187
-42.926037 114.580978 -23.108002 -0.441588 -0.549088 -0.709579
-40.674038 113.721977 -23.693003 -0.368109 -0.597124 -0.712698
-38.317039 112.944977 -24.117002 -0.299663 -0.638850 -0.708571
-35.867039 112.237984 -24.387001 -0.237597 -0.673981 -0.699498
-33.333038 111.585983 -24.498001 -0.180190 -0.705606 -0.685312
-30.726036 110.980988 -24.442001 -0.126970 -0.735610 -0.665399
-28.058037 110.418983 -24.213001 -0.079260 -0.763657 -0.640738
-25.340036 109.891983 -23.809002 -0.037956 -0.789818 -0.612166
-22.586037 109.392982 -23.228003 0.000254 -0.816651 -0.577132
-19.805037 107.734993 -20.653999 0.027018 -0.830031 -0.557063
-19.805037 106.505981 -18.848000 0.031019 -0.818970 -0.572998
-17.010036 107.191994 -19.688000 0.030334 -0.825950 -0.562927
-17.010036 105.940987 -17.900001 0.030305 -0.811619 -0.583400
-14.211037 106.532990 -18.591000 0.027279 -0.818161 -0.574342
-57.309040 130.175964 -12.612003 -0.929806 -0.117260 -0.348871
-58.183044 135.286972 -11.599003 -0.952789 -0.081689 -0.292438
-58.912045 140.697968 -10.312003 -0.969594 -0.054083 -0.238667
-59.498051 146.389969 -8.757002 -0.981745 -0.033155 -0.187288
-59.945049 152.338974 -6.942002 -0.990250 -0.017971 -0.138135
-60.257053 158.522964 -4.879003 -0.995836 -0.007756 -0.090832
-60.425056 171.499969 -2.990003 -0.998554 0.000141 -0.053766
-60.440056 164.917969 -2.571003 -0.999084 -0.001474 -0.042762
-60.500057 164.806976 0.116997 -1.000000 0.000044 -0.000395
-60.462059 171.499969 -1.544003 -0.999693 -0.000335 -0.024757
-60.440052 158.300964 -2.169003 -0.998970 -0.003887 -0.045205
-60.257050 152.001968 -4.195003 -0.995726 -0.011791 -0.091606
-59.945049 145.936966 -5.979003 -0.989878 -0.024392 -0.139809
-59.498047 140.128967 -7.515002 -0.980816 -0.042412 -0.190267
-58.912045 134.601974 -8.795002 -0.967619 -0.066805 -0.243414
-58.183041 129.376968 -9.810002 -0.948991 -0.098773 -0.299433
-57.309040 124.475967 -10.554003 -0.922956 -0.139869 -0.358593
-56.287037 119.920967 -11.022003 -0.884966 -0.194884 -0.422913
-55.116039 115.727966 -11.216002 -0.840237 -0.251114 -0.480566
-53.796040 114.358978 -12.574002 -0.787084 -0.304923 -0.536210
-52.330040 113.126984 -13.828002 -0.727615 -0.359728 -0.584099
-50.720039 112.027977 -14.971002 -0.659464 -0.417004 -0.625472
-48.968033 111.055977 -15.993002 -0.584340 -0.474845 -0.658080
-47.080036 110.201981 -16.885002 -0.505047 -0.531058 -0.680371
-45.064034 109.458977 -17.644002 -0.427168 -0.580570 -0.693156
-42.926033 108.812981 -18.279001 -0.354430 -0.621407 -0.698737
-40.674034 108.242973 -18.786001 -0.284995 -0.657680 -0.697305
-38.317036 107.745979 -19.153002 -0.216932 -0.692451 -0.688079
-35.867035 107.316994 -19.368002 -0.152568 -0.725102 -0.671528
-33.333035 106.947983 -19.421001 -0.092926 -0.755591 -0.648419
-30.726036 106.631989 -19.305002 -0.039702 -0.783954 -0.619548
-28.058037 106.359993 -19.013002 0.002643 -0.807053 -0.590473
-25.340036 106.077988 -18.521002 0.023829 -0.815014 -0.578951
-22.586037 105.703987 -17.866001 0.029186 -0.810745 -0.584671
-19.805037 105.229988 -17.071001 0.030863 -0.804355 -0.593347
-17.010036 104.640984 -16.137001 0.030359 -0.796861 -0.603400
-14.211037 103.926987 -15.071001 0.027443 -0.788544 -0.614366
-60.435059 171.499969 2.687997 -0.999710 0.002030 0.024000
-60.480064 191.499969 -1.545003 -0.999803 0.001467 -0.019795
-60.500057 171.499969 -0.048003 -0.999997 0.000386 -0.002288
-60.499058 171.499969 -0.000003 -0.999750 0.001606 0.022310
-60.433056 171.499969 -2.688003 -0.999664 -0.000133 -0.025912
-60.246056 171.499969 -5.397003 -0.997214 0.002032 -0.074572
-3.589071 191.499985 59.919998 -0.045040 0.001885 0.998983
-5.891064 171.499985 59.745998 -0.075160 0.008166 0.997138
-3.175064 171.499985 59.931999 -0.025599 0.008059 0.999640
-15.071058 171.499985 -58.203999 -0.246280 -0.004839 -0.969187
-18.747065 191.499985 -57.158001 -0.305357 0.001423 -0.952237
-12.773065 191.499985 -58.730999 -0.201065 0.001105 -0.979577
-3.442059 171.499985 -59.928001 -0.052197 -0.005767 -0.998620
-5.897058 169.386978 -59.726002 -0.086900 -0.026267 -0.995871
-5.897058 171.499985 -59.747002 -0.074084 -0.004765 -0.997241
-6.669066 191.499985 -59.681999 -0.102676 0.001095 -0.994714
-6.378058 171.499985 -59.710999 -0.097252 -0.007521 -0.995231
-6.668059 171.499985 -59.675999 -0.119587 -0.009360 -0.992780
