-4.493039 -32.692989 -12.099966 -0.128870 -0.833176 0.537783
-5.013039 -39.684994 -23.099962 -0.099558 -0.923147 0.371332
-0.000039 -32.999989 -12.099965 0.000000 -0.843172 0.537644
-0.000039 -39.999992 -23.099962 0.013063 -0.974651 0.223350
17.145964 28.196007 -12.099986 0.442416 0.717023 0.538652
23.510963 32.361004 -23.099987 0.542494 0.753482 0.371436
19.269964 35.052002 -23.099989 0.442856 0.837708 0.319569
13.146964 30.268007 -12.099987 0.343502 0.769475 0.538438
32.922962 -2.251992 -12.115600 0.839856 -0.072911 0.537890
39.920963 -2.511996 -23.099974 0.925008 -0.079923 0.371447
20.825962 -25.597990 -12.099967 0.533371 -0.652096 0.538782
27.381962 -29.158995 -23.099964 0.634995 -0.677362 0.371433
22.537962 -23.999990 -12.099968 0.573978 -0.614673 0.541041
24.117962 -22.523991 -12.099968 0.615243 -0.575488 0.538785
30.819962 -25.496994 -23.099966 0.716924 -0.589975 0.371416
26.959961 -19.030991 -12.099969 0.686084 -0.488944 0.538723
33.772961 -21.432995 -23.099968 0.786916 -0.492757 0.371422
27.801962 -17.644991 -12.099970 0.718848 -0.436953 0.540675
29.299961 -15.181992 -12.099971 0.744898 -0.393774 0.538581
36.192963 -17.030994 -23.099968 0.843784 -0.387411 0.371403
31.094961 -11.050991 -12.099972 0.790743 -0.291425 0.538328
23.510962 -32.360994 -23.099964 0.542494 -0.753482 0.371437
21.338963 -23.114988 -7.099968 0.642845 -0.765996 0.000000
21.881962 -22.658991 -12.099968 0.694709 -0.719291 0.000000
21.881962 -22.658989 -7.099968 0.694731 -0.719269 0.000000
23.070961 -21.338989 -7.099969 0.743203 -0.669065 0.000000
20.350962 -19.039993 -15.099969 -0.913717 0.406352 0.000000
20.618961 -18.213989 -7.099970 -0.950794 0.309823 0.000000
20.640963 -18.146992 -15.099970 -0.950598 0.310426 0.000000
20.350962 -19.039989 -7.099970 -0.890993 0.454016 0.000000
20.640963 -18.146988 -7.099970 -0.950088 0.311981 0.000000
31.336962 -10.183991 -12.099972 0.811006 -0.226890 0.539249
32.382961 -6.178992 -12.099974 0.835201 -0.113333 0.538141
30.819963 25.497002 -23.099985 0.716924 0.589975 0.371416
26.959963 19.031008 -12.099983 0.686084 0.488945 0.538722
33.772961 21.433002 -23.099983 0.797600 0.511543 0.319623
27.381964 29.159002 -23.099985 0.641286 0.697565 0.319617
24.117964 22.524008 -12.099984 0.615243 0.575488 0.538785
8.838964 30.223009 -7.099988 0.342421 0.939547 0.000000
8.682963 30.280008 -12.099988 0.298318 0.954466 0.000000
8.682963 30.280010 -7.099988 0.276157 0.961113 0.000000
-20.248035 24.130009 -12.099987 -0.624729 0.780842 0.000000
-18.214037 25.608009 -7.099988 -0.587682 0.809092 0.000000
-16.692036 26.713007 -12.099987 -0.549465 0.835516 0.000000
-25.646036 18.214012 -7.099985 -0.787808 0.615921 0.000000
-23.409037 21.078009 -12.099986 -0.758529 0.651640 0.000000
-26.115036 17.615009 -12.099984 -0.815581 0.578643 0.000000
-29.206038 -11.799989 -12.115600 -0.935638 -0.352962 0.000000
-30.169039 -8.838986 -7.099976 -0.951082 -0.308939 0.000000
-30.564037 -7.620989 -12.099976 -0.964444 -0.264287 0.000000
-25.618038 -18.213987 -7.099972 -0.828928 -0.559355 0.000000
-27.280039 -15.749989 -12.099973 -0.854133 -0.520055 0.000000
-24.822039 -19.392988 -12.099971 -0.787991 -0.615686 0.000000
-20.351038 -19.039991 -15.099971 0.913717 0.406352 0.000000
-20.619038 -18.213987 -7.099972 0.950794 0.309823 0.000000
-20.351038 -19.039988 -7.099971 0.890993 0.454016 0.000000
15.004962 -19.039991 -15.099970 0.891035 0.453935 0.000000
14.735961 -18.213989 -7.099970 0.952072 0.305873 0.000000
15.004961 -19.039989 -7.099970 0.890940 0.454120 0.000000
14.714962 -18.146990 -15.099970 0.952679 0.303978 0.000000
-14.736037 18.214012 -7.099985 -0.952072 -0.305873 0.000000
-15.005037 19.040009 -15.099984 -0.913683 -0.406427 0.000000
-14.715037 18.147007 -15.099984 -0.952679 -0.303978 0.000000
-15.005037 19.040012 -7.099985 -0.890941 -0.454120 0.000000
-14.715037 18.147011 -7.099985 -0.954228 -0.299079 0.000000
-11.137037 11.137009 -13.099981 0.707107 -0.707107 0.000000
-8.839037 13.023010 -7.099982 0.634331 -0.773061 0.000000
-11.137037 11.137011 -7.099982 0.707107 -0.707107 0.000000
-13.096037 8.750009 -13.099980 0.812869 -0.582447 0.000000
-13.023037 8.839011 -7.099981 0.773061 -0.634331 0.000000
-13.096037 8.750011 -7.099981 0.831582 -0.555401 0.000000
-20.351036 19.040009 -15.099984 0.913717 -0.406352 0.000000
-20.619036 18.214012 -7.099985 0.950794 -0.309823 0.000000
-20.641037 18.147007 -15.099984 0.950598 -0.310426 0.000000
-20.351036 19.040012 -7.099985 0.890993 -0.454016 0.000000
-19.040037 20.351007 -15.099985 0.406352 -0.913717 0.000000
-18.214037 20.619011 -7.099986 0.309823 -0.950794 0.000000
-19.040037 20.351011 -7.099986 0.454016 -0.890993 0.000000
-18.147036 20.641008 -15.099985 0.310426 -0.950598 0.000000
-18.147036 20.641012 -7.099986 0.311981 -0.950088 0.000000
-18.214039 14.736012 -7.099984 0.305877 0.952071 0.000000
-19.040037 15.005009 -15.099983 0.406427 0.913683 0.000000
-19.040039 15.005012 -7.099984 0.454119 0.890941 0.000000
-18.147036 14.715009 -15.099983 0.303984 0.952677 0.000000
-18.147038 14.715012 -7.099984 0.299092 0.954224 0.000000
-11.137038 -11.136990 -13.099974 0.707107 0.707107 0.000000
-13.023038 -8.838987 -7.099975 0.773061 0.634331 0.000000
-11.137038 -11.136988 -7.099974 0.707107 0.707107 0.000000
-8.750038 -13.095989 -13.099973 0.582447 0.812869 0.000000
-8.839038 -13.022987 -7.099973 0.634331 0.773061 0.000000
-8.750038 -13.095987 -7.099973 0.555401 0.831582 0.000000
18.213963 14.736010 -7.099982 -0.305873 0.952072 0.000000
19.039965 15.005007 -15.099981 -0.453935 0.891035 0.000000
18.146963 14.715007 -15.099981 -0.303978 0.952679 0.000000
19.039963 15.005010 -7.099982 -0.454120 0.890940 0.000000
26.114964 17.615007 -12.099982 0.828903 0.559392 0.000000
25.645964 18.214010 -7.099983 0.787808 0.615921 0.000000
26.114964 17.615009 -7.099983 0.828767 0.559594 0.000000
23.408964 21.078007 -12.099983 0.743141 0.669135 0.000000
19.039965 20.351006 -15.099983 -0.406352 -0.913717 0.000000
18.213964 20.619009 -7.099984 -0.309823 -0.950794 0.000000
18.146963 20.641006 -15.099983 -0.310426 -0.950598 0.000000
18.146963 20.641010 -7.099984 -0.311981 -0.950088 0.000000
20.247963 24.130007 -12.099985 0.642711 0.766108 0.000000
18.213964 25.608009 -7.099986 0.587682 0.809092 0.000000
20.247963 24.130009 -7.099985 0.642711 0.766109 0.000000
19.039965 20.351009 -7.099984 -0.454016 -0.890993 0.000000
20.350964 19.040007 -15.099983 -0.913717 -0.406352 0.000000
20.618963 18.214010 -7.099983 -0.950794 -0.309823 0.000000
20.350964 19.040010 -7.099983 -0.890993 -0.454016 0.000000
20.640965 18.147005 -15.099982 -0.950598 -0.310426 0.000000
20.640965 18.147009 -7.099983 -0.950088 -0.311981 0.000000
21.338964 23.077009 -7.099985 0.694574 0.719421 0.000000
23.408964 21.078009 -7.099984 0.743191 0.669080 0.000000
11.136963 11.137008 -13.099980 -0.707107 -0.707107 0.000000
13.022963 8.839009 -7.099980 -0.773061 -0.634331 0.000000
11.136963 11.137010 -7.099981 -0.707107 -0.707107 0.000000
8.838963 13.023009 -7.099982 -0.634331 -0.773061 0.000000
15.004963 19.040007 -15.099983 0.913683 -0.406428 0.000000
14.735963 18.214010 -7.099983 0.952072 -0.305873 0.000000
14.714963 18.147005 -15.099983 0.952679 -0.303978 0.000000
15.004963 19.040010 -7.099984 0.890940 -0.454120 0.000000
14.714963 18.147009 -7.099983 0.954228 -0.299079 0.000000
8.838962 -13.022988 -7.099972 -0.634331 0.773061 0.000000
8.749962 -13.095990 -13.099972 -0.582447 0.812869 0.000000
8.749962 -13.095988 -7.099972 -0.555401 0.831582 0.000000
14.714961 -18.146988 -7.099970 0.954228 0.299079 0.000000
-6.549039 -30.811989 -12.099966 -0.230684 -0.973029 0.000000
-8.839039 -30.154987 -7.099967 -0.275741 -0.961232 0.000000
-10.774039 -29.599989 -12.099967 -0.340516 -0.940238 -0.001431
-23.071037 -21.338987 -7.099971 -0.743204 -0.669065 0.000000
-21.882038 -22.658989 -12.099970 -0.711205 -0.702985 0.000000
-21.882038 -22.658987 -7.099970 -0.694573 -0.719423 0.000000
-19.040039 -20.350990 -15.099971 0.406352 0.913717 0.000000
-18.214039 -20.618986 -7.099971 0.309823 0.950794 0.000000
-18.147038 -20.640991 -15.099971 0.310426 0.950598 0.000000
-19.040039 -20.350986 -7.099971 0.454016 0.890993 0.000000
-18.147038 -20.640987 -7.099971 0.311981 0.950088 0.000000
-10.774039 -29.599987 -7.099967 -0.338975 -0.940795 0.000000
-6.549039 -30.811987 -7.099967 -0.207912 -0.978148 0.000000
-14.715038 -18.146990 -15.099971 -0.952679 0.303978 0.000000
-14.736039 -18.213987 -7.099972 -0.952072 0.305873 0.000000
-14.715039 -18.146986 -7.099972 -0.954228 0.299079 0.000000
-15.005038 -19.039991 -15.099971 -0.913683 0.406427 0.000000
-15.005039 -19.039988 -7.099971 -0.890941 0.454120 0.000000
-24.822039 -19.392986 -7.099972 -0.787979 -0.615702 0.000000
-18.214039 -14.735988 -7.099973 0.305873 -0.952072 0.000000
-19.040039 -15.004991 -15.099973 0.406427 -0.913683 0.000000
-18.147038 -14.714991 -15.099973 0.303978 -0.952679 0.000000
-20.641039 -18.146990 -15.099972 0.950598 0.310426 0.000000
-20.641039 -18.146986 -7.099972 0.950088 0.311981 0.000000
-18.147038 -14.714988 -7.099973 0.299079 -0.954228 0.000000
-19.040039 -15.004988 -7.099973 0.454120 -0.890941 0.000000
-27.280039 -15.749987 -7.099973 -0.866053 -0.499953 0.000000
-29.206038 -11.799987 -7.099975 -0.927153 -0.374684 0.000000
-30.564037 -7.620987 -7.099976 -0.970367 -0.241635 0.000000
-32.923038 -2.251989 -12.099977 -0.840005 -0.073627 0.537560
-39.292038 -7.494992 -23.099976 -0.914778 -0.158977 0.371360
-32.383038 -6.178989 -12.099977 -0.835041 -0.114383 0.538166
-39.921040 -2.511993 -23.099977 -0.925170 -0.079931 0.371041
-29.958038 9.734010 -12.099982 -0.958025 0.286684 0.000000
-30.181038 8.839011 -7.099982 -0.970310 0.241863 0.000000
-29.958038 9.734012 -7.099982 -0.951094 0.308902 0.000000
-26.115036 17.615011 -7.099985 -0.841683 0.539972 0.000000
-20.641037 18.147011 -7.099985 0.950088 -0.311981 0.000000
-23.409037 21.078011 -7.099986 -0.743158 0.669116 0.000000
-20.248035 24.130011 -7.099987 -0.642779 0.766051 0.000000
-16.692036 26.713009 -7.099988 -0.529856 0.848087 0.000000
-8.683036 30.280008 -12.099988 -0.298318 0.954466 0.000000
-8.839036 30.223009 -7.099988 -0.342421 0.939547 0.000000
-8.683036 30.280010 -7.099988 -0.276157 0.961113 0.000000
27.801964 17.645008 -12.099982 0.718848 0.436954 0.540674
29.299963 15.182007 -12.099981 0.744898 0.393774 0.538580
31.094961 11.051007 -12.099979 0.790743 0.291425 0.538327
36.192963 17.031002 -23.099981 0.856583 0.405108 0.319615
29.801964 14.026007 -12.099980 0.771910 0.335348 0.540090
38.041962 12.361003 -23.099979 0.901480 0.291874 0.319600
31.336962 10.184008 -12.099979 0.811007 0.226891 0.539249
32.309963 6.714008 -12.099978 0.822589 0.184106 0.538007
32.922962 2.252008 -12.099977 0.840005 0.073627 0.537560
39.291962 7.495003 -23.099977 0.914778 0.158977 0.371359
32.382961 6.179008 -12.099977 0.835041 0.114383 0.538166
39.920963 2.512003 -23.099976 0.896223 0.047058 0.441100
31.020962 5.470007 -12.099977 0.980543 0.196304 0.000000
30.180962 8.839009 -7.099979 0.970379 0.241586 0.000000
31.020962 5.470009 -7.099978 0.984796 0.173716 0.000000
18.146961 14.715010 -7.099982 -0.299079 0.954228 0.000000
18.146961 -14.714992 -15.099971 -0.303978 -0.952679 0.000000
18.213963 -14.735989 -7.099971 -0.305873 -0.952072 0.000000
18.146961 -14.714989 -7.099971 -0.299079 -0.954228 0.000000
19.039963 -15.004992 -15.099971 -0.406427 -0.913683 0.000000
19.039963 -15.004989 -7.099971 -0.454120 -0.890941 0.000000
18.213963 -20.618988 -7.099969 -0.309823 0.950794 0.000000
18.146961 -20.640991 -15.099969 -0.310426 0.950598 0.000000
18.146961 -20.640989 -7.099969 -0.311981 0.950088 0.000000
19.039963 -20.350990 -15.099969 -0.454075 0.890963 0.000000
19.039963 -20.350988 -7.099969 -0.454016 0.890993 0.000000
13.146961 -30.267988 -12.099966 0.343501 -0.769475 0.538438
19.269962 -35.051991 -23.099962 0.459272 -0.828807 0.319606
15.866962 -28.858990 -12.099966 0.387133 -0.747080 0.540371
17.145962 -28.195990 -12.099966 0.442417 -0.717022 0.538653
6.548961 -30.811989 -12.099966 0.230684 -0.973029 0.000000
8.838961 -30.154987 -7.099966 0.275740 -0.961232 0.000000
6.548961 -30.811987 -7.099966 0.207912 -0.978148 0.000000
4.133961 -32.716988 -12.099965 0.056841 -0.841347 0.537498
-4.134039 -32.716988 -12.099966 -0.056919 -0.841341 0.537500
-8.198039 -31.922989 -12.099966 -0.171701 -0.824815 0.538702
-27.802038 -17.644989 -12.099972 -0.718848 -0.436953 0.540675
-31.337038 -10.183989 -12.115600 -0.810342 -0.227919 0.539814
-32.310038 -6.713989 -12.099977 -0.822286 -0.184831 0.538222
-32.383038 6.179010 -12.099980 -0.835041 0.114383 0.538166
-31.337038 10.184011 -12.099982 -0.811007 0.226891 0.539249
-27.802036 17.645010 -12.099984 -0.718848 0.436954 0.540674
-8.198036 31.923008 -12.099989 -0.171701 0.824815 0.538701
-4.134036 32.717007 -12.099989 -0.056919 0.841341 0.537499
4.133964 32.717007 -12.099989 0.056842 0.841348 0.537497
8.197964 31.923008 -12.099988 0.171725 0.824810 0.538702
20.825964 25.598007 -12.099985 0.533371 0.652097 0.538781
10.773961 -29.599989 -7.099967 0.363827 -0.931467 0.000000
10.773961 -29.599989 -12.099966 0.320077 -0.947392 0.000000
25.926962 -2.852990 -7.099975 -0.309122 0.951022 0.000000
26.762962 -2.426990 -7.099976 -0.587799 0.809007 0.000000
25.926962 -2.852993 -15.115600 -0.309122 0.951022 0.000000
26.762962 -2.426993 -15.115600 -0.587799 0.809007 0.000000
24.999962 -2.999993 -15.115600 0.000000 1.000000 0.000000
24.999962 -2.999990 -7.099975 0.000000 1.000000 0.000000
27.426962 -1.762990 -7.099976 -0.809007 0.587800 0.000000
27.426962 -1.762993 -15.115600 -0.725006 0.518290 0.453589
31.326962 -3.292992 -12.115600 0.994516 -0.104584 0.000000
31.480963 1.099008 -12.099977 0.999933 0.011550 0.000000
31.326962 -3.292990 -7.099975 0.996681 -0.081410 0.000000
31.480963 1.099010 -7.099977 0.999391 0.034895 0.000000
24.072962 -2.852993 -15.115600 0.216668 0.661101 0.718331
24.072962 -2.852990 -7.099975 0.309122 0.951022 0.000000
22.572962 -1.762993 -15.099976 0.570107 0.402119 0.716435
22.146961 -0.926993 -15.099976 0.672120 0.212922 0.709168
22.572962 -1.762990 -7.099976 0.809007 0.587800 0.000000
22.146961 -0.926990 -7.099976 0.951022 0.309122 0.000000
23.236961 -2.426990 -7.099976 0.587799 0.809007 0.000000
23.236961 -2.426993 -15.115600 0.524757 0.715634 0.460975
24.072962 -2.852993 -15.115600 -0.001529 -0.009641 0.999952
24.999962 -2.999993 -15.115600 -0.001529 -0.009641 0.999952
22.146961 -0.926993 -15.099976 0.441540 0.057442 0.895401
22.146961 -0.926993 -15.099976 0.442046 0.058965 0.895052
24.999962 -2.999993 -15.115600 0.000000 -0.006187 0.999981
25.926962 -2.852993 -15.115600 0.000000 -0.006187 0.999981
22.146961 -0.926993 -15.099976 0.442763 0.059891 0.894636
25.926962 -2.852993 -15.115600 0.002067 -0.004056 0.999990
26.762962 -2.426993 -15.115600 0.002067 -0.004056 0.999990
26.762962 -2.426993 -15.115600 0.002555 -0.002555 0.999993
27.426962 -1.762993 -15.115600 -0.398282 0.194014 0.896510
22.146961 -0.926993 -15.099976 0.442920 0.060554 0.894514
27.852962 -0.926993 -15.099976 -0.850478 0.267982 0.452628
22.146961 -0.926993 -15.099976 0.698380 0.110746 0.707107
27.852962 -0.926993 -15.099976 -0.848496 0.275797 0.451652
27.999962 0.000007 -15.099976 -0.892186 0.000000 0.451667
27.852962 0.927007 -15.099976 -0.848496 -0.275797 0.451652
21.999962 0.000007 -15.099976 0.892186 0.000000 0.451667
27.852962 0.927007 -15.099976 -0.848496 -0.275797 0.451652
27.426962 1.763007 -15.099977 -0.721789 -0.524430 0.451656
21.999962 0.000007 -15.099976 0.892186 0.000000 0.451667
27.426962 1.763007 -15.099977 -0.721789 -0.524430 0.451656
26.762962 2.427007 -15.099977 -0.524430 -0.721790 0.451656
26.762962 2.427007 -15.099977 -0.524430 -0.721790 0.451656
22.146961 0.927007 -15.099977 0.848496 -0.275797 0.451652
22.146961 0.927007 -15.099977 0.848496 -0.275797 0.451652
22.572962 1.763007 -15.099977 0.721789 -0.524430 0.451656
23.236961 2.427007 -15.099977 0.524430 -0.721790 0.451656
24.072962 2.853007 -15.099977 0.275797 -0.848496 0.451652
24.999962 3.000007 -15.099977 0.000000 -0.892186 0.451667
25.926962 2.853007 -15.099977 -0.275797 -0.848496 0.451652
-29.695036 -4.268995 -28.099976 -0.989826 -0.142282 0.000000
-30.000036 0.000005 -28.099977 -1.000000 0.000000 0.000000
-29.695036 -4.268999 -38.099976 -0.989826 -0.142282 0.000000
-30.000036 0.000001 -38.099976 -1.000000 0.000000 0.000000
-28.785036 -8.451998 -38.099976 -0.959481 -0.281774 0.000000
-28.785038 -8.451994 -28.099974 -0.959481 -0.281774 0.000000
-29.695036 4.269005 -28.099979 -0.989826 0.142282 0.000000
-29.695036 4.269001 -38.099979 -0.989826 0.142282 0.000000
-39.921040 2.512005 -28.099979 -0.998030 0.062742 0.000000
-39.921040 -2.511995 -28.099977 -0.998030 -0.062742 0.000000
-39.921040 2.512007 -23.099979 -0.981631 0.043350 0.185801
-39.921040 -2.511993 -23.099977 -0.981631 -0.043350 0.185801
-39.292038 7.495005 -28.099981 -0.982285 0.187392 0.000000
-28.785036 8.452001 -38.099979 -0.959481 0.281774 0.000000
-28.785036 8.452004 -28.099981 -0.959481 0.281774 0.000000
-27.289036 12.462004 -28.099981 -0.909636 0.415405 0.000000
-27.289036 12.462000 -38.099979 -0.909636 0.415405 0.000000
-25.238037 16.219004 -28.099983 -0.841301 0.540567 0.000000
-25.238037 16.219000 -38.099983 -0.841301 0.540567 0.000000
-30.820036 25.497004 -28.099987 -0.770536 0.637397 0.000000
-27.382036 29.159004 -28.099987 -0.669115 0.743159 0.000000
-33.773033 21.433004 -28.099985 -0.832888 0.553441 0.000000
-36.193039 17.031004 -28.099983 -0.895701 0.444656 0.000000
-38.042038 12.361005 -28.099981 -0.951038 0.309075 0.000000
-22.673037 19.646004 -28.099985 -0.755775 0.654831 0.000000
-22.673037 19.646000 -38.099983 -0.755775 0.654831 0.000000
-23.511036 32.361004 -28.099989 -0.587734 0.809054 0.000000
-19.270037 35.052002 -28.099989 -0.481745 0.876311 0.000000
-14.725036 37.191006 -28.099991 -0.348548 0.937291 0.000000
-19.646036 22.673004 -28.099985 -0.654831 0.755775 0.000000
-19.646036 22.673000 -38.099983 -0.654831 0.755775 0.000000
-16.219036 25.238003 -28.099985 -0.540567 0.841301 0.000000
-16.219035 25.238001 -38.099987 -0.540567 0.841301 0.000000
-12.462036 27.289001 -28.099987 -0.415405 0.909637 0.000000
-12.462035 27.288998 -38.099987 -0.393634 0.919267 0.000000
-8.452036 28.785002 -28.099987 -0.304572 0.952489 0.000000
-8.452035 28.784998 -38.099987 -0.281774 0.959481 0.000000
-9.948035 38.743000 -28.099991 -0.248733 0.968572 0.000000
5.012965 39.685001 -28.099991 0.125353 0.992112 0.000000
9.947965 38.743000 -28.099989 0.248733 0.968572 0.000000
-0.000035 40.000000 -28.099991 0.000000 1.000000 0.000000
-5.013035 39.685001 -28.099991 -0.125353 0.992112 0.000000
-4.269036 29.695002 -28.099987 -0.142282 0.989826 0.000000
-4.269035 29.694998 -38.099987 -0.142282 0.989826 0.000000
16.218962 -25.238001 -38.099964 0.540567 -0.841301 0.000000
19.645962 -22.673000 -38.099968 0.654831 -0.755775 0.000000
16.218962 -25.237997 -28.099966 0.540567 -0.841301 0.000000
19.645962 -22.672997 -28.099968 0.654831 -0.755775 0.000000
12.461962 -27.288996 -28.099966 0.415405 -0.909637 0.000000
12.461962 -27.288998 -38.099964 0.415405 -0.909637 0.000000
14.724961 -37.190998 -28.099962 0.368136 -0.929772 0.000000
9.947961 -38.742996 -28.099962 0.228394 -0.973569 0.000000
19.269962 -35.051994 -28.099962 0.481745 -0.876311 0.000000
8.451962 -28.784994 -28.099966 0.281774 -0.959481 0.000000
8.451962 -28.784998 -38.099964 0.281774 -0.959481 0.000000
4.268962 -29.694994 -28.099966 0.142282 -0.989826 0.000000
4.268962 -29.694998 -38.099964 0.142282 -0.989826 0.000000
5.012961 -39.684998 -28.099962 0.104491 -0.994526 0.000000
-4.269038 -29.694994 -28.099966 -0.142282 -0.989826 0.000000
-8.452038 -28.784994 -28.099966 -0.281774 -0.959481 0.000000
-4.269038 -29.694998 -38.099964 -0.142282 -0.989826 0.000000
-8.452038 -28.784998 -38.099964 -0.281774 -0.959481 0.000000
-0.000038 -29.999998 -38.099964 0.000000 -1.000000 0.000000
-0.000038 -29.999994 -28.099966 0.000000 -1.000000 0.000000
-19.646038 -22.672995 -28.099970 -0.654831 -0.755775 0.000000
-22.673038 -19.645994 -28.099970 -0.755775 -0.654831 0.000000
-19.646038 -22.672998 -38.099968 -0.654831 -0.755775 0.000000
-22.673038 -19.645998 -38.099968 -0.755775 -0.654831 0.000000
-16.219037 -25.237999 -38.099968 -0.540567 -0.841301 0.000000
-16.219038 -25.237995 -28.099968 -0.540567 -0.841301 0.000000
-12.462038 -27.288994 -28.099966 -0.415405 -0.909637 0.000000
-12.462038 -27.288998 -38.099968 -0.415405 -0.909637 0.000000
-12.462038 -27.288998 -38.099968 0.000000 0.000000 -1.000000
-16.219037 -25.237999 -38.099968 0.000000 0.000000 -1.000000
-8.452038 -28.784998 -38.099964 0.000000 0.000000 -1.000000
-8.452038 -28.784998 -38.099964 0.000000 0.000000 -1.000000
-16.219037 -25.237999 -38.099968 0.000000 0.000000 -1.000000
-4.269038 -29.694998 -38.099964 0.000000 0.000000 -1.000000
-16.219037 -25.237999 -38.099968 0.000000 0.000000 -1.000000
-19.646038 -22.672998 -38.099968 0.000000 0.000000 -1.000000
-4.269038 -29.694998 -38.099964 0.000000 0.000000 -1.000000
-4.269038 -29.694998 -38.099964 0.000000 0.000000 -1.000000
-19.646038 -22.672998 -38.099968 0.000000 0.000000 -1.000000
-0.000038 -29.999998 -38.099964 0.050391 -0.705309 -0.707107
-0.000038 -29.999998 -38.099964 0.050391 -0.705309 -0.707107
-19.646038 -22.672998 -38.099968 0.000000 0.000000 -1.000000
4.268962 -29.694998 -38.099964 0.050391 -0.705309 -0.707107
-22.673038 -19.645998 -38.099968 -0.566101 -0.423709 -0.707107
4.268962 -29.694998 -38.099964 0.050391 -0.705309 -0.707107
-22.673038 -19.645998 -38.099968 -0.566101 -0.423709 -0.707107
-25.238039 -16.218998 -38.099972 -0.752098 -0.483250 -0.448127
-25.238039 -16.218998 -38.099972 -0.752098 -0.483250 -0.448127
-27.289036 -12.461998 -38.099972 -0.813189 -0.371360 -0.448125
-27.289036 -12.461998 -38.099972 -0.813189 -0.371360 -0.448125
-28.785036 -8.451998 -38.099976 -0.662505 -0.247159 -0.707107
-28.785036 -8.451998 -38.099976 -0.662505 -0.247159 -0.707107
-29.695036 -4.268999 -38.099976 0.000000 0.000000 -1.000000
-30.000036 0.000001 -38.099976 0.000000 0.000000 -1.000000
-30.000036 0.000001 -38.099976 0.000000 0.000000 -1.000000
-29.695036 4.269001 -38.099979 0.000000 0.000000 -1.000000
-29.695036 4.269001 -38.099979 0.000000 0.000000 -1.000000
-28.785036 8.452001 -38.099979 0.000000 0.000000 -1.000000
-27.289036 12.462000 -38.099979 0.000000 0.000000 -1.000000
4.268962 -29.694998 -38.099964 0.050391 -0.705309 -0.707107
-27.289036 12.462000 -38.099979 0.000000 0.000000 -1.000000
-25.238037 16.219000 -38.099983 0.000000 0.000000 -1.000000
-25.238037 16.219000 -38.099983 0.000000 0.000000 -1.000000
-22.673037 19.646000 -38.099983 0.000000 0.000000 -1.000000
-19.646036 22.673000 -38.099983 0.000000 0.000000 -1.000000
-19.646036 22.673000 -38.099983 0.000000 0.000000 -1.000000
-16.219035 25.238001 -38.099987 0.000000 0.000000 -1.000000
-16.219035 25.238001 -38.099987 0.000000 0.000000 -1.000000
-12.462035 27.288998 -38.099987 0.000000 0.000000 -1.000000
-8.452035 28.784998 -38.099987 0.000000 0.000000 -1.000000
-4.269035 29.694998 -38.099987 -0.050391 0.705309 -0.707107
8.451962 -28.784998 -38.099964 0.000000 0.000000 -1.000000
12.461962 -27.288998 -38.099964 0.000000 0.000000 -1.000000
16.218962 -25.238001 -38.099964 0.000000 0.000000 -1.000000
16.218962 -25.238001 -38.099964 0.000000 0.000000 -1.000000
-4.269035 29.694998 -38.099987 -0.050391 0.705309 -0.707107
19.645962 -22.673000 -38.099968 0.500000 -0.500000 -0.707107
19.645962 -22.673000 -38.099968 0.500000 -0.500000 -0.707107
22.672962 -19.646000 -38.099968 0.675640 -0.585399 -0.448128
25.237963 -16.219000 -38.099968 0.752098 -0.483250 -0.448127
25.237963 -16.219000 -38.099968 0.752098 -0.483250 -0.448127
27.288963 -12.462000 -38.099972 0.813189 -0.371360 -0.448125
27.288963 -12.462000 -38.099972 0.813189 -0.371360 -0.448125
28.784964 -8.452001 -38.099972 0.903405 -0.288877 -0.316874
29.694963 -4.269001 -38.099972 0.935333 -0.157301 -0.316874
29.694963 -4.269001 -38.099972 0.935333 -0.157301 -0.316874
-4.269035 29.694998 -38.099987 -0.050391 0.705309 -0.707107
29.999964 -0.000001 -38.099976 0.893971 0.000000 -0.448125
29.999964 -0.000001 -38.099976 0.893971 0.000000 -0.448125
29.694963 4.268999 -38.099976 0.884874 0.127196 -0.448128
-0.000035 29.999998 -38.099987 0.000000 0.893971 -0.448125
4.268965 29.694998 -38.099987 0.127196 0.884874 -0.448128
29.694963 4.268999 -38.099976 0.884874 0.127196 -0.448128
4.268965 29.694998 -38.099987 0.127196 0.884874 -0.448128
28.784964 8.451998 -38.099976 0.857747 0.251897 -0.448128
28.784964 8.451998 -38.099976 0.857747 0.251897 -0.448128
4.268965 29.694998 -38.099987 0.127196 0.884874 -0.448128
27.288963 12.461998 -38.099979 0.813189 0.371360 -0.448125
4.268965 29.694998 -38.099987 0.127196 0.884874 -0.448128
8.451964 28.784998 -38.099987 0.288877 0.903405 -0.316874
27.288963 12.461998 -38.099979 0.813189 0.371360 -0.448125
27.288963 12.461998 -38.099979 0.813189 0.371360 -0.448125
8.451964 28.784998 -38.099987 0.288877 0.903405 -0.316874
12.461965 27.288998 -38.099983 0.371360 0.813189 -0.448125
12.461965 27.288998 -38.099983 0.371360 0.813189 -0.448125
16.218964 25.237999 -38.099983 0.483250 0.752098 -0.448127
16.218964 25.237999 -38.099983 0.483250 0.752098 -0.448127
19.645964 22.672998 -38.099983 0.585399 0.675640 -0.448128
22.672964 19.645998 -38.099983 0.675640 0.585399 -0.448128
27.288963 12.461998 -38.099979 0.813189 0.371360 -0.448125
22.672964 19.645998 -38.099983 0.675640 0.585399 -0.448128
25.237965 16.218998 -38.099979 0.752098 0.483250 -0.448127
-25.238039 -16.218994 -28.099972 -0.841301 -0.540567 0.000000
-36.193039 -17.030994 -28.099972 -0.904827 -0.425779 0.000000
-38.042038 -12.360994 -28.099974 -0.951038 -0.309075 0.000000
-33.773037 -21.432995 -28.099970 -0.844315 -0.535848 0.000000
-30.820038 -25.496994 -28.099968 -0.770536 -0.637397 0.000000
-27.382038 -29.158995 -28.099966 -0.684571 -0.728946 0.000000
-23.511038 -32.360994 -28.099966 -0.587734 -0.809054 0.000000
-19.270039 -35.051991 -28.099964 -0.481745 -0.876311 0.000000
-14.725039 -37.190994 -28.099964 -0.368136 -0.929772 0.000000
-9.948039 -38.742992 -28.099962 -0.248733 -0.968572 0.000000
-5.013039 -39.684994 -28.099962 -0.125353 -0.992112 0.000000
-0.000039 -39.999992 -28.099962 -0.000001 -1.000000 0.000000
-0.000036 30.000002 -28.099987 0.000000 1.000000 0.000000
4.268964 29.695002 -28.099987 0.142282 0.989826 0.000000
14.724965 37.191002 -28.099989 0.387562 0.921844 0.000000
12.461964 27.289001 -28.099985 0.393634 0.919267 0.000000
16.218964 25.238003 -28.099985 0.540567 0.841301 0.000000
8.451964 28.785002 -28.099987 0.281774 0.959481 0.000000
19.269964 35.051998 -28.099987 0.481746 0.876311 0.000000
23.510963 32.361000 -28.099987 0.604570 0.796552 0.000000
29.694963 4.269002 -28.099976 0.989826 0.142282 0.000000
28.784964 8.452002 -28.099977 0.959481 0.281774 0.000000
29.999964 0.000002 -28.099976 1.000000 0.000000 0.000000
39.920963 -2.511998 -28.099974 0.992127 -0.125236 0.000000
39.291962 -7.494998 -28.099972 0.982285 -0.187392 0.000000
39.920963 -2.511998 -28.099974 1.000000 0.000000 0.000000
39.920963 2.512002 -28.099976 0.998030 0.062742 0.000000
39.920963 -2.511996 -23.099974 0.960048 0.000000 0.279835
39.920963 2.512003 -23.099976 0.941733 0.025654 0.335381
29.694963 -4.268997 -28.099974 0.989826 -0.142283 0.000000
28.784962 -8.451997 -28.099972 0.965927 -0.258815 0.000000
38.041962 -12.360997 -28.099970 0.951038 -0.309075 0.000000
27.288961 -12.461997 -28.099970 0.919267 -0.393634 0.000000
25.237963 -16.218996 -28.099970 0.841301 -0.540567 0.000000
24.821962 -19.392988 -7.099969 0.787979 -0.615702 0.000000
24.821962 -19.392990 -12.099969 0.787991 -0.615686 0.000000
30.819962 -25.496996 -28.099966 0.770536 -0.637397 0.000000
27.381962 -29.158997 -28.099964 0.684571 -0.728946 0.000000
33.772961 -21.432997 -28.099968 0.844315 -0.535848 0.000000
36.192963 -17.030996 -28.099968 0.904827 -0.425779 0.000000
25.367962 -20.986990 -12.099969 0.652396 -0.530782 0.540972
22.672962 -19.645996 -28.099968 0.755775 -0.654831 0.000000
23.510962 -32.360996 -28.099964 0.570639 -0.821201 0.000000
19.353962 -26.636990 -12.099967 0.485083 -0.687130 0.540876
18.514961 -25.483990 -12.099967 0.587715 -0.809068 0.000000
18.514961 -25.483988 -7.099967 0.587653 -0.809113 0.000000
20.350962 -19.039993 -15.099969 -0.571863 0.415900 0.707107
20.640963 -18.146992 -15.099970 0.000000 0.000000 1.000000
19.798962 -19.798992 -15.099969 -0.630884 0.630885 0.451629
19.798962 -19.798992 -15.099969 -0.630884 0.630885 0.451629
20.640963 -18.146992 -15.099970 0.000000 0.000000 1.000000
19.039963 -20.350990 -15.099969 -0.526076 0.723356 0.447214
19.039963 -20.350990 -15.099969 -0.526076 0.723356 0.447214
20.640963 -18.146992 -15.099970 0.000000 0.000000 1.000000
18.146961 -20.640991 -15.099969 0.000000 0.000000 1.000000
18.146961 -20.640991 -15.099969 0.000000 0.000000 1.000000
20.640963 -18.146992 -15.099970 0.000000 0.000000 1.000000
17.207962 -20.640991 -15.099969 0.218625 0.672460 0.707107
16.315962 -20.350990 -15.099969 0.405059 0.794948 0.451648
15.555962 -19.798990 -15.099969 0.630944 0.630795 0.451672
15.555962 -19.798990 -15.099969 0.630944 0.630795 0.451672
15.004962 -19.039991 -15.099970 0.723809 0.525453 0.447214
15.004962 -19.039991 -15.099970 0.723809 0.525453 0.447214
14.714962 -18.146990 -15.099970 0.000000 0.000000 1.000000
20.640963 -17.207993 -15.099970 -0.850603 -0.276542 0.447214
20.350962 -16.315991 -15.099970 -0.794948 -0.405059 0.451647
14.714962 -18.146990 -15.099970 0.000000 0.000000 1.000000
20.350962 -16.315991 -15.099970 -0.794948 -0.405059 0.451647
19.798962 -15.555991 -15.099971 -0.630795 -0.630944 0.451672
19.798962 -15.555991 -15.099971 -0.630795 -0.630944 0.451672
19.039963 -15.004992 -15.099971 -0.415407 -0.572221 0.707107
18.146961 -14.714992 -15.099971 0.000000 0.000000 1.000000
14.714962 -17.207991 -15.099970 0.672461 -0.218625 0.707107
14.714962 -17.207991 -15.099970 0.672461 -0.218625 0.707107
18.146961 -14.714992 -15.099971 0.000000 0.000000 1.000000
15.004962 -16.315991 -15.099971 0.865943 -0.384917 0.319346
17.207962 -14.714992 -15.099971 0.218625 -0.672461 0.707107
15.004962 -16.315991 -15.099971 0.865943 -0.384917 0.319346
15.555962 -15.555991 -15.099971 0.704679 -0.633565 0.319410
16.315962 -15.004992 -15.099971 0.404721 -0.795134 0.451623
19.798962 -19.798988 -7.099969 -0.668964 0.743294 0.000000
20.640963 -18.146988 -7.099970 -1.000000 0.000000 0.000000
20.640963 -17.207989 -7.099970 -0.987675 -0.156521 0.000000
20.640963 -18.146992 -15.099970 -1.000000 0.000000 0.000000
20.640963 -17.207993 -15.099970 -0.978043 -0.208404 0.000000
29.801962 -14.025991 -12.099971 0.771909 -0.335348 0.540090
32.922962 -2.071992 -12.115600 0.843576 -0.001012 0.537009
39.291962 7.495001 -28.099977 0.982285 0.187392 0.000000
27.288963 12.462002 -28.099979 0.909637 0.415405 0.000000
30.819963 25.497000 -28.099983 0.783712 0.621124 0.000000
33.772964 21.433001 -28.099983 0.855369 0.518020 0.000000
27.381964 29.159000 -28.099985 0.684571 0.728946 0.000000
22.672964 19.646002 -28.099981 0.755775 0.654831 0.000000
25.237965 16.219002 -28.099981 0.841301 0.540567 0.000000
19.645964 22.673002 -28.099983 0.654831 0.755775 0.000000
12.811964 28.777008 -12.099987 0.385405 0.922747 0.000000
12.811964 28.777010 -7.099987 0.406820 0.913508 0.000000
4.383964 31.193008 -12.099988 0.139137 0.990273 0.000000
4.383963 31.193010 -7.099988 0.139137 0.990273 0.000000
-12.812037 28.777008 -12.099988 -0.385406 0.922747 0.000000
-12.812037 28.777010 -7.099988 -0.406820 0.913508 0.000000
-23.237038 2.427009 -15.099978 -0.587799 -0.809007 0.000000
-22.573038 1.763009 -15.099978 -0.809007 -0.587800 0.000000
-23.237038 2.427012 -7.099979 -0.587799 -0.809007 0.000000
-22.573038 1.763012 -7.099979 -0.809007 -0.587800 0.000000
-24.073038 2.853012 -7.099979 -0.309122 -0.951022 0.000000
-24.073038 2.853009 -15.099979 -0.309122 -0.951022 0.000000
-25.000038 3.000012 -7.099979 0.000000 -1.000000 0.000000
-25.000038 3.000009 -15.099979 0.000000 -1.000000 0.000000
-31.021038 5.470010 -12.099980 -0.980487 0.196585 0.000000
-31.021038 5.470012 -7.099981 -0.984796 0.173716 0.000000
-19.799038 -19.798986 -7.099971 0.707107 0.707107 0.000000
-19.799038 -19.798990 -15.099971 0.707107 0.707107 0.000000
15.555962 -19.798988 -7.099970 0.743542 0.668689 0.000000
16.315962 -20.350988 -7.099969 0.454002 0.891001 0.000000
13.095962 -8.749989 -7.099974 -0.831582 0.555401 0.000000
14.550961 -6.026989 -7.099975 -0.923911 0.382608 0.000000
13.095962 -8.749991 -13.099974 -0.812869 0.582447 0.000000
14.550961 -6.026991 -13.115600 -0.923911 0.382608 0.000000
14.550962 6.027008 -13.099978 -0.825571 -0.341884 0.448940
13.095963 8.750008 -13.099979 -0.770823 -0.552319 0.317450
15.446962 3.073008 -13.099977 -0.876385 -0.174361 0.448940
15.446962 3.073008 -13.099977 -0.876385 -0.174361 0.448940
13.095963 8.750008 -13.099979 -0.770823 -0.552319 0.317450
11.136963 11.137008 -13.099980 -0.631843 -0.631843 0.448942
15.446962 3.073008 -13.099977 -0.876385 -0.174361 0.448940
11.136963 11.137008 -13.099980 -0.631843 -0.631843 0.448942
8.749963 13.096007 -13.099981 -0.552319 -0.770823 0.317450
6.026963 14.551007 -13.099982 -0.341884 -0.825571 0.448940
6.026963 14.551007 -13.099982 -0.341884 -0.825571 0.448940
3.072963 15.447007 -13.099982 -0.174361 -0.876385 0.448940
-0.000037 15.750008 -13.099982 0.000000 -0.893559 0.448946
-0.000037 15.750008 -13.099982 0.000000 -0.893559 0.448946
-3.073037 15.447008 -13.099982 0.174361 -0.876385 0.448940
15.749962 0.000008 -13.099977 -0.893559 0.000000 0.448946
15.446961 -3.072992 -13.099976 -0.876385 0.174361 0.448940
15.446961 -3.072992 -13.099976 -0.877086 0.172319 0.448360
-3.073037 15.447008 -13.099982 0.172319 -0.877086 0.448360
14.550961 -6.026991 -13.115600 -0.678616 0.202101 0.706141
14.550961 -6.026991 -13.115600 -0.674519 0.207878 0.708386
-3.073037 15.447008 -13.099982 0.176659 -0.875726 0.449329
13.095962 -8.749991 -13.099974 -0.689801 0.569134 0.447505
13.095962 -8.749991 -13.099974 -0.691475 0.567329 0.447214
11.136962 -11.136991 -13.099973 -0.685799 0.685799 0.243639
8.749962 -13.095990 -13.099972 -0.496388 0.742999 0.448945
6.026962 -14.550990 -13.099972 -0.341884 0.825571 0.448940
3.072962 -15.446990 -13.099972 -0.174361 0.876385 0.448940
-6.027037 14.551008 -13.099982 0.341884 -0.825571 0.448940
-8.750037 13.096008 -13.099982 0.552319 -0.770823 0.317450
-11.137037 11.137009 -13.099981 0.692168 -0.648173 0.317450
-13.096037 8.750009 -13.099980 0.742999 -0.496388 0.448945
-14.551037 6.027009 -13.099979 0.825571 -0.341884 0.448940
-15.447037 3.073009 -13.099978 0.876385 -0.174361 0.448940
3.072962 -15.446990 -13.099972 -0.174361 0.876385 0.448940
-15.447037 3.073009 -13.099978 0.876385 -0.174361 0.448940
-15.750037 0.000010 -13.099977 0.893559 0.000000 0.448946
-15.750037 0.000010 -13.099977 0.893559 0.000000 0.448946
-15.447038 -3.072990 -13.099977 0.876385 0.174361 0.448940
-14.551038 -6.026990 -13.099976 0.825571 0.341884 0.448940
3.072962 -15.446990 -13.099972 -0.176788 0.875255 0.450194
-14.551038 -6.026990 -13.099976 0.825979 0.339238 0.450195
-13.096038 -8.749990 -13.115600 0.771359 0.551127 0.318220
3.072962 -15.446990 -13.099972 -0.172619 0.877475 0.447482
-13.096038 -8.749990 -13.115600 0.769990 0.553883 0.316749
-11.137038 -11.136990 -13.099974 0.647423 0.693232 0.316659
-11.137038 -11.136990 -13.099974 0.648173 0.692168 0.317450
-0.000038 -15.749990 -13.099972 0.000000 0.893559 0.448946
-0.000038 -15.749990 -13.099972 0.000000 0.893559 0.448946
-11.137038 -11.136990 -13.099974 0.648173 0.692168 0.317450
-3.073038 -15.446990 -13.099972 0.174361 0.876385 0.448940
-6.027038 -14.550989 -13.099972 0.341884 0.825571 0.448940
-6.027038 -14.550989 -13.099972 0.341884 0.825571 0.448940
-8.750038 -13.095989 -13.099973 0.496388 0.742999 0.448945
8.749963 13.096009 -7.099982 -0.555401 -0.831582 0.000000
6.026963 14.551009 -7.099982 -0.382608 -0.923911 0.000000
3.072963 15.447009 -7.099983 -0.195130 -0.980777 0.000000
2.426963 23.237009 -7.099986 -0.809007 0.587799 0.000000
2.852963 24.073009 -7.099986 -0.933412 0.358808 0.000000
2.426964 23.237007 -15.099985 -0.838868 0.544335 0.000000
2.852963 24.073006 -15.099985 -0.951022 0.309123 0.000000
1.762964 22.573008 -15.099985 -0.587800 0.809007 0.000000
1.762963 22.573009 -7.099986 -0.587800 0.809007 0.000000
0.926963 22.147007 -15.099985 -0.309122 0.951022 0.000000
0.926963 22.147009 -7.099985 -0.309122 0.951022 0.000000
2.999963 25.000010 -7.099986 -1.000000 0.000000 0.000000
2.999964 25.000006 -15.099986 -1.000000 0.000000 0.000000
-0.000037 22.000008 -15.099985 0.000000 1.000000 0.000000
-0.000037 22.000010 -7.099985 0.000000 1.000000 0.000000
-2.853037 24.073009 -7.099986 0.951022 0.309122 0.000000
-2.427037 23.237009 -7.099986 0.809007 0.587799 0.000000
-2.853036 24.073008 -15.099986 0.951022 0.309122 0.000000
-2.427037 23.237007 -15.099985 0.809007 0.587799 0.000000
-3.000036 25.000008 -15.099986 1.000000 0.000000 0.000000
-3.000037 25.000010 -7.099987 1.000000 0.000000 0.000000
-0.927037 22.147007 -15.099985 0.309122 0.951022 0.000000
-1.763037 22.573008 -15.099985 0.587800 0.809007 0.000000
-0.927037 22.147009 -7.099986 0.309122 0.951022 0.000000
-1.763037 22.573009 -7.099986 0.587800 0.809007 0.000000
-2.427037 23.237007 -15.099985 0.000000 0.000000 1.000000
-1.763037 22.573008 -15.099985 0.000000 0.000000 1.000000
-2.853036 24.073008 -15.099986 0.000000 0.000000 1.000000
-2.853036 24.073008 -15.099986 0.000000 0.000000 1.000000
-1.763037 22.573008 -15.099985 0.000000 0.000000 1.000000
-0.927037 22.147007 -15.099985 0.000000 0.000000 1.000000
-2.853036 24.073008 -15.099986 0.000000 0.000000 1.000000
-0.927037 22.147007 -15.099985 0.000000 0.000000 1.000000
-3.000036 25.000008 -15.099986 0.698380 -0.110746 0.707107
-3.000036 25.000008 -15.099986 0.698380 -0.110746 0.707107
-0.927037 22.147007 -15.099985 0.000000 0.000000 1.000000
-2.853036 25.927008 -15.099986 0.848496 -0.275797 0.451652
-2.853036 25.927008 -15.099986 0.848496 -0.275797 0.451652
-2.427036 26.763008 -15.099987 0.721789 -0.524430 0.451656
-2.427036 26.763008 -15.099987 0.721789 -0.524430 0.451656
-1.763036 27.427006 -15.099987 0.596656 -0.736210 0.319369
-0.927036 27.853006 -15.099987 0.275797 -0.848496 0.451652
-0.000036 28.000006 -15.099987 0.000000 -0.892186 0.451667
0.926964 27.853006 -15.099987 -0.275797 -0.848496 0.451652
1.762964 27.427006 -15.099987 -0.524430 -0.721789 0.451656
1.762964 27.427006 -15.099987 -0.524430 -0.721789 0.451656
-0.927037 22.147007 -15.099985 0.000000 0.000000 1.000000
2.426964 26.763006 -15.099986 -0.721790 -0.524430 0.451656
2.426964 26.763006 -15.099986 -0.721790 -0.524430 0.451656
2.852963 25.927006 -15.099986 -0.848496 -0.275797 0.451652
-0.000037 22.000008 -15.099985 0.000000 0.000000 1.000000
0.926963 22.147007 -15.099985 0.000000 0.000000 1.000000
1.762964 22.573008 -15.099985 0.000000 0.000000 1.000000
2.426964 23.237007 -15.099985 0.000000 0.000000 1.000000
2.852963 25.927006 -15.099986 -0.848496 -0.275797 0.451652
2.426964 23.237007 -15.099985 0.000000 0.000000 1.000000
2.852963 24.073006 -15.099985 0.000000 0.000000 1.000000
2.852963 25.927006 -15.099986 -0.848496 -0.275797 0.451652
2.852963 24.073006 -15.099985 0.000000 0.000000 1.000000
2.999964 25.000006 -15.099986 -0.698380 -0.110746 0.707107
-2.853037 25.927010 -7.099987 0.951022 -0.309122 0.000000
-2.427037 26.763010 -7.099987 0.776896 -0.629629 0.000000
-1.763037 27.427010 -7.099988 0.587800 -0.809007 0.000000
-0.927037 27.853010 -7.099988 0.309122 -0.951022 0.000000
-0.000037 28.000010 -7.099988 0.000000 -1.000000 0.000000
0.926963 27.853010 -7.099988 -0.309122 -0.951022 0.000000
1.762963 27.427010 -7.099987 -0.587800 -0.809007 0.000000
2.426963 26.763010 -7.099987 -0.809007 -0.587799 0.000000
2.852963 25.927010 -7.099987 -0.951022 -0.309122 0.000000
-3.073037 15.447010 -7.099983 0.195130 -0.980777 0.000000
-0.000037 15.750010 -7.099983 0.000000 -1.000000 0.000000
-6.027037 14.551010 -7.099983 0.382608 -0.923911 0.000000
-25.927038 -2.852988 -7.099977 0.309122 0.951022 0.000000
-25.000038 -2.999988 -7.099977 0.000000 1.000000 0.000000
-25.927038 -2.852990 -15.099977 0.309122 0.951022 0.000000
-25.000038 -2.999990 -15.099977 0.000000 1.000000 0.000000
-26.763039 -2.426991 -15.099977 0.587799 0.809007 0.000000
-26.763039 -2.426988 -7.099977 0.587799 0.809007 0.000000
-24.073038 -2.852988 -7.099977 -0.309122 0.951022 0.000000
-24.073038 -2.852990 -15.099977 -0.309122 0.951022 0.000000
-22.147038 -0.926991 -15.099977 -0.951022 0.309122 0.000000
-22.573038 -1.762991 -15.099977 -0.809007 0.587800 0.000000
-22.147038 -0.926988 -7.099978 -0.951022 0.309122 0.000000
-22.573038 -1.762988 -7.099978 -0.809007 0.587800 0.000000
-22.000038 0.000012 -7.099978 -1.000000 0.000000 0.000000
-22.000038 0.000009 -15.099977 -1.000000 0.000000 0.000000
-23.237038 -2.426991 -15.099977 -0.587799 0.809007 0.000000
-23.237038 -2.426988 -7.099977 -0.587799 0.809007 0.000000
-23.237038 -2.426991 -15.099977 -0.321041 0.630026 0.707107
-22.573038 -1.762991 -15.099977 0.000000 0.000000 1.000000
-24.073038 -2.852990 -15.099977 -0.321041 0.630026 0.707107
-22.147038 -0.926991 -15.099977 0.000000 0.000000 1.000000
-22.000038 0.000009 -15.099977 -0.698380 -0.110746 0.707107
-25.000038 -2.999990 -15.099977 0.000000 0.000000 1.000000
-25.927038 -2.852990 -15.099977 0.000000 0.000000 1.000000
-26.763039 -2.426991 -15.099977 0.500000 0.500000 0.707107
-27.427038 -1.762990 -15.099977 0.721789 0.524430 0.451656
-22.000038 0.000009 -15.099977 -0.698380 -0.110746 0.707107
-22.147038 0.927009 -15.099978 -0.848496 -0.275797 0.451652
-27.427038 -1.762990 -15.099977 0.721789 0.524430 0.451656
-22.147038 0.927009 -15.099978 -0.848496 -0.275797 0.451652
-22.573038 1.763009 -15.099978 -0.630025 -0.321042 0.707107
-23.237038 2.427009 -15.099978 0.000000 0.000000 1.000000
-23.237038 2.427009 -15.099978 0.000000 0.000000 1.000000
-24.073038 2.853009 -15.099979 0.000000 0.000000 1.000000
-27.427038 -1.762990 -15.099977 0.721789 0.524430 0.451656
-27.427038 -1.762990 -15.099977 0.721789 0.524430 0.451656
-24.073038 2.853009 -15.099979 0.000000 0.000000 1.000000
-25.000038 3.000009 -15.099979 0.110746 -0.698380 0.707107
-25.927038 2.853009 -15.099979 0.275797 -0.848496 0.451652
-27.427038 -1.762990 -15.099977 0.721789 0.524430 0.451656
-25.927038 2.853009 -15.099979 0.275797 -0.848496 0.451652
-27.853039 -0.926991 -15.099977 0.848496 0.275797 0.451652
-27.853039 -0.926991 -15.099977 0.848496 0.275797 0.451652
-25.927038 2.853009 -15.099979 0.275797 -0.848496 0.451652
-28.000038 0.000009 -15.099978 0.892186 0.000000 0.451667
-26.763039 2.427009 -15.099979 0.524430 -0.721790 0.451656
-28.000038 0.000009 -15.099978 0.892186 0.000000 0.451667
-28.000038 0.000009 -15.099978 0.892186 0.000000 0.451667
-26.763039 2.427009 -15.099979 0.524430 -0.721790 0.451656
-27.427038 1.763009 -15.099978 0.721789 -0.524430 0.451656
-28.000038 0.000009 -15.099978 0.892186 0.000000 0.451667
-27.427038 1.763009 -15.099978 0.721789 -0.524430 0.451656
-27.853039 0.927009 -15.099978 0.848496 -0.275797 0.451652
-22.147038 0.927012 -7.099979 -0.951022 -0.309122 0.000000
-15.556037 19.799011 -7.099985 -0.707190 -0.707023 0.000000
-16.316037 20.351011 -7.099986 -0.454003 -0.891000 0.000000
-15.556036 19.799007 -15.099985 -0.707190 -0.707023 0.000000
-16.316036 20.351007 -15.099985 -0.406447 -0.913675 0.000000
-14.715037 18.147007 -15.099984 -1.000000 0.000000 0.000000
-14.715037 17.208008 -15.099984 -0.987675 0.156520 0.000000
-14.715037 18.147011 -7.099985 -1.000000 0.000000 0.000000
-14.715037 17.208012 -7.099984 -0.987675 0.156520 0.000000
-18.147038 14.715012 -7.099984 0.000000 1.000000 0.000000
-17.208038 14.715011 -7.099983 -0.156520 0.987675 0.000000
-18.147036 14.715009 -15.099983 0.000000 1.000000 0.000000
-17.208036 14.715008 -15.099983 -0.208403 0.978043 0.000000
-16.316037 15.005011 -7.099984 -0.406186 0.913790 0.000000
-16.316037 15.005008 -15.099983 -0.499797 0.866142 0.000000
-15.556037 15.556011 -7.099984 -0.668588 0.743633 0.000000
-15.556037 15.556007 -15.099983 -0.707107 0.707107 0.000000
-14.551037 6.027011 -7.099980 0.923911 -0.382608 0.000000
-20.641037 17.208012 -7.099985 0.951003 0.309181 0.000000
-20.351038 16.316011 -7.099984 0.913675 0.406446 0.000000
-20.641037 17.208008 -15.099984 0.951003 0.309182 0.000000
-20.351036 16.316008 -15.099983 0.891001 0.454002 0.000000
-20.641037 17.208008 -15.099984 1.000000 0.000000 0.000000
-20.641037 18.147007 -15.099984 1.000000 0.000000 0.000000
-20.641037 17.208012 -7.099985 1.000000 0.000000 0.000000
-20.641037 18.147011 -7.099985 1.000000 0.000000 0.000000
-20.351036 19.040009 -15.099984 0.571863 -0.415900 0.707107
-20.641037 18.147007 -15.099984 0.000000 0.000000 1.000000
-19.799036 19.799007 -15.099985 0.630885 -0.630885 0.451629
-19.799036 19.799007 -15.099985 0.630885 -0.630885 0.451629
-20.641037 18.147007 -15.099984 0.000000 0.000000 1.000000
-19.040037 20.351007 -15.099985 0.415900 -0.571863 0.707107
-19.040037 20.351007 -15.099985 0.415900 -0.571863 0.707107
-20.641037 18.147007 -15.099984 0.000000 0.000000 1.000000
-18.147036 20.641008 -15.099985 0.000000 0.000000 1.000000
-18.147036 20.641008 -15.099985 0.000000 0.000000 1.000000
-20.641037 18.147007 -15.099984 0.000000 0.000000 1.000000
-17.208036 20.641008 -15.099985 -0.218625 -0.672460 0.707107
-20.641037 17.208008 -15.099984 0.000000 0.000000 1.000000
-17.208036 20.641008 -15.099985 -0.218625 -0.672460 0.707107
-20.641037 17.208008 -15.099984 0.000000 0.000000 1.000000
-20.351036 16.316008 -15.099983 0.572123 0.415542 0.707107
-20.351036 16.316008 -15.099983 0.572123 0.415542 0.707107
-19.799036 15.556007 -15.099983 0.630795 0.630944 0.451672
-19.040037 15.005009 -15.099983 0.415407 0.572221 0.707107
-18.147036 14.715009 -15.099983 0.000000 0.000000 1.000000
-17.208036 14.715008 -15.099983 0.000000 0.000000 1.000000
-16.316037 15.005008 -15.099983 0.000000 0.000000 1.000000
-15.556037 15.556007 -15.099983 -0.572481 0.415048 0.707107
-15.005037 16.316008 -15.099983 -0.795134 0.404721 0.451623
-15.005037 16.316008 -15.099983 -0.795134 0.404721 0.451623
-14.715037 17.208008 -15.099984 -0.672461 0.218625 0.707107
-17.208036 20.641008 -15.099985 -0.218625 -0.672460 0.707107
-14.715037 17.208008 -15.099984 -0.672461 0.218625 0.707107
-14.715037 18.147007 -15.099984 0.000000 0.000000 1.000000
-17.208036 20.641008 -15.099985 -0.218625 -0.672460 0.707107
-14.715037 18.147007 -15.099984 0.000000 0.000000 1.000000
-15.005037 19.040009 -15.099984 0.000000 0.000000 1.000000
-15.005037 19.040009 -15.099984 0.000000 0.000000 1.000000
-15.556036 19.799007 -15.099985 0.000000 0.000000 1.000000
-17.208036 20.641008 -15.099985 -0.218625 -0.672460 0.707107
-15.556036 19.799007 -15.099985 0.000000 0.000000 1.000000
-16.316036 20.351007 -15.099985 -0.276542 -0.850602 0.447214
-19.799036 19.799011 -7.099985 0.707107 -0.707107 0.000000
-18.147036 20.641008 -15.099985 0.000000 -1.000000 0.000000
-17.208036 20.641008 -15.099985 -0.156521 -0.987675 0.000000
-18.147036 20.641012 -7.099986 0.000000 -1.000000 0.000000
-17.208036 20.641012 -7.099986 -0.208404 -0.978043 0.000000
-19.799038 15.556011 -7.099984 0.707023 0.707190 0.000000
-15.005037 16.316011 -7.099984 -0.891197 0.453617 0.000000
-8.750037 13.096010 -7.099982 0.555401 -0.831582 0.000000
-15.447038 3.073011 -7.099979 0.980777 -0.195130 0.000000
-15.750038 0.000012 -7.099978 1.000000 0.000000 0.000000
-15.447038 -3.072988 -7.099977 0.980777 0.195130 0.000000
-0.000039 -15.749988 -7.099972 0.000000 1.000000 0.000000
-3.073039 -15.446987 -7.099972 0.195130 0.980777 0.000000
3.072961 -15.446988 -7.099972 -0.195130 0.980777 0.000000
-6.027039 -14.550987 -7.099972 0.382608 0.923911 0.000000
-14.715039 -18.146986 -7.099972 -1.000000 0.000000 0.000000
-14.715039 -17.207987 -7.099972 -0.987675 -0.156521 0.000000
-14.715038 -18.146990 -15.099971 -1.000000 0.000000 0.000000
-14.715038 -17.207991 -15.099972 -0.978043 -0.208403 0.000000
-15.005039 -16.315988 -7.099972 -0.913790 -0.406186 0.000000
-15.005038 -16.315990 -15.099972 -0.891197 -0.453617 0.000000
-15.556038 -15.555987 -7.099973 -0.707107 -0.707107 0.000000
-15.556038 -15.555990 -15.099972 -0.707107 -0.707107 0.000000
