-11.418042 41.215969 -73.324005 0.107938 -0.626363 0.772022
-8.643043 43.068970 -72.130005 0.081823 -0.646168 0.758796
-5.897043 44.932968 -70.752007 0.055065 -0.666523 0.743448
-3.188044 46.788971 -69.197014 0.027669 -0.687033 0.726099
-0.500045 48.618969 -67.468010 0.000000 -0.704259 0.709944
2.187956 46.788971 -69.197014 -0.027531 -0.687038 0.726100
4.896956 44.931969 -70.753998 -0.054925 -0.666429 0.743543
7.642956 43.066971 -72.132004 -0.081721 -0.646148 0.758824
10.417956 41.213970 -73.327003 -0.107917 -0.626263 0.772107
13.210957 39.389969 -74.338997 -0.133043 -0.607433 0.783151
16.009956 37.615971 -75.169998 -0.156984 -0.589718 0.792205
18.804956 35.906971 -75.825996 -0.179411 -0.573294 0.799466
21.585957 34.277969 -76.315002 -0.200401 -0.558339 0.805045
24.339956 32.743969 -76.643997 -0.219698 -0.544686 0.809352
27.057957 31.313967 -76.826996 -0.237091 -0.532189 0.812750
29.725956 29.996967 -76.873993 -0.252963 -0.520541 0.815504
32.332954 28.795967 -76.799995 -0.267639 -0.509437 0.817828
34.866955 27.714968 -76.614990 -0.281349 -0.498986 0.819668
37.316956 26.752968 -76.333992 -0.293489 -0.489289 0.821255
39.673954 25.910967 -75.972992 -0.304943 -0.479801 0.822679
41.925953 25.183968 -75.541992 -0.316890 -0.469919 0.823867
44.063953 24.567968 -75.050995 -0.329588 -0.459140 0.824962
46.079956 24.054968 -74.510994 -0.334631 -0.456072 0.824634
47.967953 23.630966 -73.985992 -0.325751 -0.464268 0.823615
49.719955 23.320965 -73.485985 -0.305360 -0.473283 0.826292
51.329956 21.060966 -74.233986 -0.219745 -0.508444 0.832585
52.795956 21.105967 -73.925987 -0.091996 -0.561622 0.822264
54.115955 21.225965 -73.802986 0.061020 -0.602548 0.795746
55.286953 21.427965 -73.864983 0.244590 -0.620750 0.744880
56.308952 21.708965 -74.112984 0.442461 -0.603797 0.663067
57.182953 22.060966 -74.547981 0.627622 -0.547411 0.553563
57.911953 22.474966 -75.170982 0.776609 -0.459926 0.430519
58.497955 22.942966 -75.980988 0.875922 -0.362289 0.318602
46.079956 26.184967 -73.302994 -0.333969 -0.481215 0.810492
-51.996006 30.790976 -161.500015 -0.856850 0.515543 -0.004852
-50.711006 32.826973 -161.500015 -0.845186 0.534450 -0.004894
-50.280998 33.494976 -181.500015 -0.820963 0.552905 -0.142534
-50.424007 33.279972 -161.500015 -0.831935 0.554859 -0.003980
-48.961006 35.361973 -161.500015 -0.818205 0.574907 -0.004627
-40.109005 -45.068027 -181.500015 -0.648054 -0.748057 -0.142956
-38.547012 -46.394028 -161.500015 -0.634446 -0.772954 0.004574
-42.910011 -42.443027 -161.500015 -0.705056 -0.709146 0.002667
-48.490005 -36.013023 -181.500015 -0.791891 -0.593789 -0.142558
-47.075012 -37.813026 -161.500015 -0.788461 -0.615079 0.002598
-48.676010 -35.765026 -161.500015 -0.803023 -0.595935 0.003905
-48.960011 -35.361027 -161.500015 -0.817640 -0.575728 0.001240
-50.372013 -33.359028 -161.500015 -0.829680 -0.558237 0.001885
-50.720013 -32.802025 -158.785019 -0.837043 -0.546976 0.013238
-48.968014 -35.224026 -156.108017 -0.806613 -0.590137 0.033384
-47.080017 -37.477028 -153.469025 -0.773677 -0.631156 0.055373
-45.064014 -39.550026 -150.866028 -0.737707 -0.670330 0.080287
-42.926018 -41.431026 -148.301025 -0.698365 -0.707491 0.108363
-40.674019 -43.104027 -145.772018 -0.655876 -0.741796 0.139874
-38.317020 -44.560028 -143.279022 -0.610786 -0.772348 0.174412
-35.867020 -45.788025 -140.820023 -0.562864 -0.798922 0.211916
-33.333023 -46.778027 -138.397018 -0.512594 -0.820932 0.251631
-30.726023 -47.524025 -136.009018 -0.460697 -0.837822 0.292937
-28.058023 -48.022026 -133.657013 -0.408191 -0.849141 0.335170
-25.340025 -48.271027 -131.341019 -0.355854 -0.854758 0.377832
-22.586025 -48.270027 -129.062012 -0.304057 -0.854959 0.420232
-19.805027 -48.019028 -126.822006 -0.253757 -0.849937 0.461753
-17.010027 -47.522026 -124.620018 -0.206174 -0.840039 0.501824
-14.211029 -46.786026 -122.459007 -0.161703 -0.825755 0.540353
-11.418030 -45.817032 -120.339996 -0.120826 -0.807717 0.577056
-8.643030 -44.622032 -118.263008 -0.084056 -0.786650 0.611651
-5.897031 -43.212032 -116.230011 -0.051614 -0.763234 0.644058
-3.188032 -41.598030 -114.241997 -0.023457 -0.738014 0.674378
-0.500033 -39.792030 -112.299011 0.000218 -0.715901 0.698201
2.187968 -41.598030 -114.242996 0.023899 -0.738035 0.674339
4.896968 -43.210030 -116.232010 0.052012 -0.763306 0.643940
7.642969 -44.619030 -118.266006 0.084432 -0.786632 0.611622
10.417970 -45.813030 -120.343002 0.121113 -0.807656 0.577082
13.210970 -46.782032 -122.461998 0.161960 -0.825682 0.540387
16.009972 -47.517029 -124.623001 0.206501 -0.839985 0.501779
18.804972 -48.013031 -126.824997 0.254019 -0.849923 0.461632
21.585972 -48.263031 -129.065994 0.304271 -0.854957 0.420081
24.339973 -48.263031 -131.343994 0.356141 -0.854693 0.377708
27.057974 -48.012032 -133.660004 0.408685 -0.848964 0.335018
29.725973 -47.512032 -136.011993 0.461040 -0.837641 0.292915
32.332973 -46.765030 -138.399994 0.512807 -0.820756 0.251770
34.866978 -45.775032 -140.822998 0.563005 -0.798738 0.212236
37.316978 -44.548031 -143.281998 0.610804 -0.772203 0.174987
39.673977 -43.094032 -145.774994 0.655934 -0.741650 0.140376
41.925976 -41.421032 -148.303986 0.698444 -0.707389 0.108519
44.063976 -39.540031 -150.867996 0.737787 -0.670289 0.079887
46.079983 -37.463032 -153.467987 0.773777 -0.631092 0.054704
47.967979 -35.207031 -156.104980 0.806628 -0.590111 0.033464
49.719982 -32.788029 -158.781982 0.837736 -0.545851 0.015652
49.711983 -32.828030 -161.499985 0.846190 -0.532874 0.002789
50.934982 -30.885031 -161.499985 0.847798 -0.530259 0.008039
50.938988 -30.888029 -181.499985 0.860058 -0.497593 -0.112703
49.719982 -32.484032 -153.290985 0.835023 -0.548311 0.045736
47.967976 -34.743031 -150.641983 0.803600 -0.591301 0.067753
46.079979 -36.829029 -148.034988 0.769038 -0.632330 0.093480
44.063976 -38.728031 -145.469986 0.731149 -0.671109 0.122615
41.925976 -40.426029 -142.945984 0.689579 -0.707400 0.155131
39.673973 -41.911030 -140.463989 0.644720 -0.740263 0.190650
37.316975 -43.173031 -138.023987 0.597079 -0.768822 0.228933
34.866974 -44.205032 -135.626999 0.546875 -0.792650 0.269505
32.332973 -44.997032 -133.272003 0.494334 -0.811379 0.311927
29.725971 -45.544029 -130.960999 0.440646 -0.824288 0.355500
27.057972 -45.843029 -128.694000 0.386810 -0.831140 0.399480
24.339972 -45.893032 -126.471001 0.333600 -0.832086 0.443106
21.585970 -45.695030 -124.294998 0.281816 -0.827414 0.485763
18.804970 -45.250031 -122.164001 0.232448 -0.817540 0.526873
16.009970 -44.565029 -120.081001 0.186316 -0.802905 0.566242
13.210969 -43.645031 -118.046997 0.144144 -0.784419 0.603249
10.433593 -42.500031 -116.060997 0.105959 -0.762749 0.637955
7.642967 -41.137032 -114.124008 0.072156 -0.738154 0.670763
4.896967 -39.568031 -112.238007 0.043597 -0.711674 0.701155
2.187967 -37.805031 -110.402008 0.019609 -0.683994 0.729224
-0.500034 -35.860031 -108.615013 0.000047 -0.660096 0.751181
-3.188033 -37.805031 -110.401009 -0.019430 -0.683865 0.729349
-5.897032 -39.569031 -112.237007 -0.043335 -0.711588 0.701259
-8.643031 -41.139030 -114.122009 -0.071975 -0.738133 0.670805
-11.418031 -42.503029 -116.058006 -0.105461 -0.762655 0.638150
-14.211030 -43.649029 -118.043007 -0.143610 -0.784451 0.603335
-17.010029 -44.570026 -120.077019 -0.185924 -0.802957 0.566297
-19.805029 -45.257027 -122.160019 -0.232084 -0.817615 0.526919
-22.586027 -45.702026 -124.290024 -0.281536 -0.827554 0.485687
-25.340027 -45.901028 -126.467018 -0.333280 -0.832226 0.443084
-28.058025 -45.852028 -128.689026 -0.386463 -0.831235 0.399619
-30.726025 -45.555027 -130.957016 -0.440315 -0.824336 0.355799
-33.333023 -45.010025 -133.268021 -0.494106 -0.811477 0.312032
-35.867023 -44.218025 -135.623016 -0.546659 -0.792810 0.269474
-38.317024 -43.188026 -138.021011 -0.596853 -0.769018 0.228863
-40.674019 -41.926025 -140.461014 -0.644639 -0.740446 0.190211
-42.926018 -40.439026 -142.943024 -0.689535 -0.707590 0.154459
-45.064018 -38.739025 -145.466019 -0.731083 -0.671274 0.122103
-47.080017 -36.840027 -148.032028 -0.768962 -0.632440 0.093367
-48.968014 -34.755028 -150.641022 -0.803534 -0.591351 0.068099
-50.720016 -32.499027 -153.292023 -0.834950 -0.548383 0.046206
-52.330017 -30.086025 -155.986023 -0.863098 -0.504293 0.027387
-54.725010 -25.684025 -161.500015 -0.903393 -0.428810 0.001580
-53.796013 -27.529024 -158.722015 -0.887793 -0.460115 0.010846
-55.116013 -24.812025 -158.690018 -0.910328 -0.413810 0.007984
-53.796013 -27.420025 -155.923019 -0.887984 -0.459109 0.026520
-55.102013 -24.834024 -161.500015 -0.913820 -0.406120 -0.000525
-54.836010 -25.432024 -161.500015 -0.914420 -0.404765 -0.000738
-54.842003 -25.435024 -181.500015 -0.896690 -0.419073 -0.142566
-53.400013 -28.313025 -161.500015 -0.880968 -0.473174 0.001173
-51.939003 -30.888025 -181.500015 -0.842880 -0.518859 -0.142616
-52.330013 -30.196024 -158.754028 -0.857695 -0.513959 0.014345
-50.720016 -32.691029 -156.048019 -0.836073 -0.547777 0.030365
-48.968014 -35.030025 -153.382019 -0.805334 -0.590641 0.050788
-47.080017 -37.200027 -150.756027 -0.771614 -0.631750 0.074187
-45.064014 -39.187027 -148.170013 -0.734770 -0.670769 0.100907
-42.926018 -40.979027 -145.623016 -0.694390 -0.707550 0.131132
-40.674019 -42.560028 -143.116028 -0.650739 -0.741250 0.164584
-38.317020 -43.921028 -140.646011 -0.604318 -0.770895 0.201294
-35.867023 -45.050026 -138.216019 -0.555293 -0.796085 0.240621
-33.333023 -45.941029 -135.824020 -0.503940 -0.816538 0.281620
-30.726023 -46.587029 -133.471024 -0.451036 -0.831568 0.324132
-28.058025 -46.985027 -131.159012 -0.397801 -0.840726 0.367334
-25.340025 -47.133026 -128.887009 -0.345029 -0.844054 0.410522
-22.586027 -47.032028 -126.656013 -0.293198 -0.841881 0.453068
-19.805027 -46.683025 -124.468018 -0.243256 -0.834515 0.494380
-17.010029 -46.091026 -122.323013 -0.196319 -0.822230 0.534225
-14.211030 -45.261032 -120.223007 -0.152872 -0.805682 0.572281
-11.418030 -44.201031 -118.168007 -0.113358 -0.785731 0.608093
-8.643030 -42.920029 -116.160011 -0.078162 -0.763024 0.641627
-5.897031 -41.429031 -114.198013 -0.047540 -0.738042 0.673078
-3.188032 -39.738029 -112.283997 -0.021489 -0.711425 0.702433
-0.500033 -37.860031 -110.418007 0.000180 -0.688461 0.725274
2.187967 -39.737030 -112.285011 0.021800 -0.711450 0.702399
4.896967 -41.427029 -114.199013 0.047812 -0.738117 0.672976
7.642968 -42.918030 -116.162010 0.078231 -0.763215 0.641391
10.417969 -44.198032 -118.170998 0.113564 -0.785933 0.607794
13.210970 -45.257030 -120.225998 0.153186 -0.805629 0.572272
16.009970 -46.086029 -122.327003 0.196795 -0.822087 0.534270
18.804970 -46.677029 -124.472000 0.243676 -0.834311 0.494516
21.585972 -47.025032 -126.660004 0.293534 -0.841750 0.453095
24.339972 -47.125031 -128.890991 0.345406 -0.843920 0.410481
27.057972 -46.975029 -131.162994 0.398306 -0.840549 0.367192
29.725973 -46.575031 -133.475998 0.451431 -0.831398 0.324017
32.332973 -45.928032 -135.827988 0.504105 -0.816435 0.281624
34.866974 -45.036030 -138.218994 0.555471 -0.795947 0.240667
37.316975 -43.907032 -140.649994 0.604449 -0.770693 0.201678
39.673977 -42.547031 -143.118988 0.650757 -0.741094 0.165213
41.925976 -40.968029 -145.625992 0.694400 -0.707460 0.131565
44.063976 -39.177029 -148.172989 0.734827 -0.670684 0.101056
46.079979 -37.189030 -150.756989 0.771763 -0.631605 0.073875
47.967979 -35.015030 -153.380981 0.805422 -0.590565 0.050277
49.719982 -32.674030 -156.044983 0.833157 -0.552095 0.032270
-51.938011 -30.887024 -161.500015 -0.833787 -0.552021 0.008486
-51.948013 -30.873024 -161.500015 -0.842859 -0.538079 0.007714
-50.709011 -32.826027 -161.500015 -0.844928 -0.534880 0.000719
-58.897011 -13.707025 -161.500031 -0.977322 -0.211753 -0.001250
-60.003002 -7.704024 -181.500015 -0.983781 -0.139541 -0.112706
-59.932011 -8.141025 -161.500031 -0.992420 -0.122887 0.000612
-58.183018 -14.725026 -140.847031 -0.958583 -0.280379 0.050073
-58.912018 -11.392026 -137.619019 -0.970426 -0.236804 0.046875
-58.912014 -12.425026 -143.625031 -0.972256 -0.231491 0.033616
-59.498016 -9.648026 -143.430023 -0.982354 -0.185106 0.026782
-59.498016 -10.365026 -149.494019 -0.982852 -0.183556 0.017567
-59.945015 -7.597025 -149.364029 -0.990487 -0.137000 0.012873
-59.945011 -8.017025 -155.461029 -0.990931 -0.134277 0.005055
-60.257011 -5.273025 -155.396027 -0.996028 -0.088960 0.003652
-60.207012 -5.925025 -161.500031 -0.994839 -0.101470 0.000234
-59.986012 -7.702025 -161.500031 -0.992437 -0.122753 0.000595
-57.309017 -16.929028 -138.134018 -0.941537 -0.329812 0.068788
-56.287018 -19.021027 -135.488022 -0.920701 -0.379257 0.092049
-55.116024 -20.987026 -132.912033 -0.895623 -0.428465 0.119486
-53.796024 -22.813026 -130.409027 -0.865932 -0.476743 0.151258
-52.330025 -24.484026 -127.980026 -0.831249 -0.523350 0.187431
-50.720024 -25.988028 -125.628021 -0.790930 -0.567797 0.228114
-48.968025 -27.311028 -123.356033 -0.744989 -0.608741 0.272811
-47.080029 -28.444027 -121.165024 -0.693975 -0.644581 0.320803
-45.064026 -29.376026 -119.058022 -0.637832 -0.674523 0.371737
-42.926025 -30.097027 -117.035027 -0.577457 -0.697521 0.424273
-40.674030 -30.602028 -115.097023 -0.514260 -0.712684 0.477094
-38.317032 -30.886028 -113.246033 -0.449712 -0.719483 0.529248
-35.867031 -30.947029 -111.481033 -0.385490 -0.718014 0.579528
-33.333031 -30.782028 -109.802017 -0.322976 -0.708853 0.627067
-30.726032 -30.394028 -108.208023 -0.264069 -0.692752 0.671091
-28.058033 -29.784029 -106.697006 -0.209691 -0.670749 0.711425
-25.340033 -28.960028 -105.269012 -0.161133 -0.644021 0.747845
-22.586035 -27.927029 -103.919006 -0.118607 -0.613884 0.780435
-19.805035 -26.693029 -102.645012 -0.082479 -0.581464 0.809380
-17.010035 -25.269028 -101.441017 -0.052801 -0.547315 0.835259
-14.211036 -23.665030 -100.307007 -0.029027 -0.511797 0.858616
-11.418036 -21.890030 -99.238007 -0.011526 -0.475667 0.879550
-8.643036 -19.958031 -98.229004 -0.000236 -0.439534 0.898226
-5.897037 -17.881031 -97.274010 0.005305 -0.403605 0.914918
-3.188037 -15.673031 -96.370010 0.005284 -0.368198 0.929732
-0.500037 -13.349030 -95.509010 0.000115 -0.339283 0.940684
2.187963 -15.673031 -96.370010 -0.005112 -0.368197 0.929734
4.896963 -17.881031 -97.275009 -0.005245 -0.403661 0.914893
7.642962 -19.958031 -98.230011 0.000302 -0.439456 0.898264
10.417963 -21.891031 -99.238998 0.011652 -0.475521 0.879627
13.210963 -23.665031 -100.307999 0.029152 -0.511773 0.858626
16.009964 -25.269030 -101.443001 0.052803 -0.547318 0.835257
18.804964 -26.693031 -102.646004 0.082572 -0.581518 0.809332
21.585964 -27.926031 -103.920998 0.118926 -0.614201 0.780137
24.339964 -28.957031 -105.272003 0.161620 -0.644511 0.747319
27.057964 -29.779030 -106.702003 0.210204 -0.671131 0.710913
29.725964 -30.387030 -108.213989 0.264532 -0.692947 0.670706
32.332966 -30.774031 -109.809990 0.323448 -0.708896 0.626776
34.866966 -30.937031 -111.488991 0.385894 -0.718006 0.579269
37.316967 -30.875031 -113.254990 0.450085 -0.719453 0.528971
39.673965 -30.590031 -115.106987 0.514451 -0.712605 0.477005
41.925964 -30.084030 -117.044991 0.577723 -0.697373 0.424156
44.063969 -29.361031 -119.066994 0.638051 -0.674370 0.371640
46.079971 -28.429031 -121.175003 0.694083 -0.644464 0.320804
47.967968 -27.295031 -123.364983 0.745121 -0.608602 0.272761
49.719971 -25.971031 -125.636993 0.791025 -0.567692 0.228047
51.329971 -24.466030 -127.987984 0.831340 -0.523235 0.187346
52.795975 -22.793030 -130.415985 0.866026 -0.476614 0.151120
54.115974 -20.966030 -132.918991 0.895674 -0.428366 0.119459
55.286972 -18.999031 -135.493988 0.920731 -0.379162 0.092142
56.308971 -16.908031 -138.138977 0.941518 -0.329809 0.069060
57.182976 -14.707030 -140.851990 0.958492 -0.280726 0.049865
57.911976 -12.410030 -143.628983 0.972167 -0.231972 0.032856
58.497978 -10.351030 -149.495987 0.982858 -0.183531 0.017511
58.944981 -7.996030 -155.457977 0.991077 -0.133183 0.005293
58.871986 -8.659031 -161.499985 0.989144 -0.146939 0.001596
58.933983 -8.142031 -161.499985 0.992720 -0.120439 0.000946
58.987984 -7.702030 -161.499985 0.992683 -0.120749 0.000974
59.224983 -5.736030 -161.499985 0.995111 -0.098763 0.000401
59.002987 -7.704029 -181.499985 0.982292 -0.121147 -0.142922
58.485981 -10.916030 -161.499985 0.985336 -0.170623 -0.001126
57.911976 -11.929030 -140.625977 0.971535 -0.233400 0.040541
57.182972 -14.142032 -137.881989 0.957529 -0.282485 0.057797
56.308971 -16.255030 -135.206985 0.939949 -0.332082 0.078850
55.286972 -18.256031 -132.602982 0.918302 -0.381954 0.104080
54.115974 -20.130030 -130.072983 0.892119 -0.431561 0.133716
52.795971 -21.863031 -127.619987 0.860950 -0.480160 0.167962
51.329971 -23.439030 -125.246986 0.824414 -0.526847 0.206819
49.719971 -24.847031 -122.955994 0.781916 -0.570990 0.250156
47.967968 -26.074030 -120.748993 0.733533 -0.611094 0.297478
46.079967 -27.111031 -118.627991 0.679752 -0.645587 0.348073
44.063965 -27.947031 -116.595993 0.620948 -0.673583 0.400887
41.925964 -28.575031 -114.652992 0.557965 -0.694079 0.454896
39.673965 -28.988031 -112.799004 0.492498 -0.706179 0.508682
37.316967 -29.184031 -111.036003 0.426306 -0.709566 0.561052
34.866966 -29.159031 -109.362991 0.361001 -0.704577 0.610942
32.332966 -28.914030 -107.779991 0.298365 -0.692076 0.657274
29.725964 -28.450031 -106.283989 0.239762 -0.672893 0.699807
27.057964 -27.771030 -104.874001 0.186454 -0.648096 0.738381
24.339964 -26.882030 -103.547997 0.139324 -0.618872 0.773037
21.585964 -25.790031 -102.302002 0.098659 -0.586739 0.803744
18.804964 -24.504030 -101.133003 0.064545 -0.552570 0.830963
16.009962 -23.034031 -100.036003 0.037062 -0.516738 0.855341
13.210963 -21.389030 -99.009003 0.015858 -0.479922 0.877168
10.417963 -19.580030 -98.044998 0.001043 -0.443041 0.896501
7.642962 -17.620031 -97.139008 -0.007649 -0.406381 0.913672
4.896962 -15.522031 -96.286011 -0.010622 -0.369808 0.929048
2.187962 -13.300031 -95.481010 -0.007730 -0.334164 0.942483
-0.500038 -10.967031 -94.715004 0.000023 -0.305223 0.952281
-3.188037 -13.300031 -95.480011 0.007887 -0.334121 0.942497
-5.897037 -15.522031 -96.285011 0.010690 -0.369841 0.929034
-8.643036 -17.620031 -97.138008 0.007749 -0.406308 0.913703
-11.418036 -19.580030 -98.043007 -0.000849 -0.443146 0.896449
-14.211036 -21.389030 -99.007019 -0.015802 -0.480115 0.877063
-17.010035 -23.034029 -100.035019 -0.037054 -0.516779 0.855317
-19.805035 -24.504028 -101.132019 -0.064483 -0.552629 0.830929
-22.586035 -25.791029 -102.301018 -0.098478 -0.586663 0.803821
-25.340034 -26.883028 -103.546013 -0.137232 -0.619595 0.772832
-28.058033 -27.774029 -104.870018 -0.185824 -0.649361 0.737428
-30.726032 -28.455029 -106.278023 -0.239227 -0.672471 0.700395
-33.333031 -28.921028 -107.773018 -0.297825 -0.691887 0.657718
-35.867031 -29.168028 -109.355026 -0.360529 -0.704551 0.611250
-38.317032 -29.194029 -111.027023 -0.425925 -0.709576 0.561329
-40.674030 -29.000029 -112.789017 -0.492190 -0.706214 0.508932
-42.926029 -28.587027 -114.643021 -0.557800 -0.694136 0.455009
-45.064026 -27.961027 -116.586021 -0.620665 -0.673708 0.401113
-47.080029 -27.126026 -118.618019 -0.679596 -0.645726 0.348119
-48.968025 -26.090027 -120.739021 -0.733434 -0.611196 0.297512
-50.720028 -24.864027 -122.947021 -0.781833 -0.571065 0.250244
-52.330025 -23.457027 -125.238022 -0.824344 -0.526922 0.206908
-53.796024 -21.882027 -127.612022 -0.860882 -0.480236 0.168096
-55.116024 -20.151026 -130.066025 -0.892055 -0.431647 0.133862
-56.287022 -18.278027 -132.596024 -0.918267 -0.382024 0.104134
-57.309017 -16.278027 -135.201019 -0.939956 -0.332082 0.078769
-58.183018 -14.163026 -137.877029 -0.955929 -0.287489 0.059577
-58.183018 -13.519026 -134.912018 -0.956873 -0.282819 0.066389
-57.309017 -15.544026 -132.277023 -0.938107 -0.334683 0.089120
-56.287022 -17.452026 -129.718033 -0.915433 -0.385187 0.116681
-55.116024 -19.231028 -127.238022 -0.887916 -0.435267 0.148823
-53.796024 -20.867027 -124.839020 -0.855057 -0.484135 0.185716
-52.330029 -22.346027 -122.526016 -0.816442 -0.530816 0.227279
-50.720028 -23.656027 -120.299026 -0.771504 -0.574515 0.273338
-48.968025 -24.786026 -118.162033 -0.720277 -0.613683 0.323409
-47.080029 -25.725027 -116.116020 -0.663436 -0.646619 0.376479
-45.064030 -26.465027 -114.164017 -0.601670 -0.672373 0.431171
-42.926029 -26.999029 -112.305023 -0.535970 -0.689967 0.486500
-40.674030 -27.321028 -110.542023 -0.468073 -0.698670 0.541081
-38.317032 -27.429029 -108.873016 -0.400180 -0.698415 0.593357
-35.867031 -27.320028 -107.299026 -0.333944 -0.689679 0.642513
-33.333031 -26.996029 -105.818024 -0.271155 -0.673384 0.687771
-30.726032 -26.456028 -104.427017 -0.214992 -0.651258 0.727765
-28.058035 -25.738279 -103.125023 -0.161566 -0.623116 0.765260
-25.340034 -24.756029 -101.907013 -0.114918 -0.591376 0.798165
-22.586035 -23.611029 -100.769012 -0.077904 -0.558565 0.825794
-19.805035 -22.277029 -99.708015 -0.045986 -0.522724 0.851261
-17.010036 -20.764029 -98.720016 -0.020930 -0.485551 0.873958
-14.211037 -19.084030 -97.800018 -0.002345 -0.447832 0.894115
-11.418036 -17.246031 -96.943008 0.009870 -0.410088 0.911992
-8.643037 -15.264030 -96.142006 0.015831 -0.372671 0.927828
-5.897037 -13.151031 -95.392006 0.016028 -0.335805 0.941795
-3.188037 -10.919030 -94.685005 0.010542 -0.300187 0.953822
-0.500038 -8.582030 -94.013008 -0.000018 -0.271552 0.962424
2.187962 -10.920031 -94.685005 -0.010456 -0.300332 0.953778
4.896962 -13.151031 -95.393005 -0.015917 -0.335867 0.941775
7.642962 -15.265031 -96.143005 -0.015708 -0.372605 0.927857
10.417962 -17.247030 -96.945000 -0.009737 -0.410186 0.911950
13.210963 -19.084030 -97.802002 0.002326 -0.447879 0.894091
16.009962 -20.765030 -98.722000 0.020953 -0.485458 0.874009
18.804962 -22.277031 -99.709999 0.046129 -0.522610 0.851323
21.585962 -23.611031 -100.771004 0.077989 -0.558492 0.825836
24.339964 -24.756031 -101.908997 0.116559 -0.592317 0.797229
27.057964 -25.706030 -103.126999 0.161774 -0.623562 0.764852
29.725964 -26.453030 -104.430992 0.213778 -0.651297 0.728087
32.332962 -26.990030 -105.823990 0.271845 -0.673867 0.687025
34.866966 -27.312031 -107.306992 0.334564 -0.689852 0.642006
37.316967 -27.419031 -108.882004 0.400580 -0.698410 0.593092
39.673965 -27.311031 -110.551987 0.468400 -0.698678 0.540787
41.925964 -26.987030 -112.315987 0.536245 -0.689907 0.486282
44.063965 -26.452030 -114.174004 0.601959 -0.672208 0.431024
46.079967 -25.710030 -116.126991 0.663655 -0.646495 0.376305
47.967964 -24.770031 -118.171982 0.720357 -0.613608 0.323375
49.719971 -23.640030 -120.308983 0.771556 -0.574453 0.273320
51.329971 -22.329031 -122.534988 0.816526 -0.530723 0.227197
52.795971 -20.849031 -124.847977 0.855118 -0.484053 0.185651
54.115971 -19.212030 -127.245987 0.887983 -0.435174 0.148691
55.286968 -17.431030 -129.725983 0.915466 -0.385148 0.116547
56.308971 -15.522032 -132.283981 0.938105 -0.334709 0.089046
57.182972 -13.497031 -134.917984 0.956401 -0.284501 0.066011
57.911972 -11.371032 -137.623978 0.970880 -0.234912 0.046994
58.497978 -9.158031 -140.399979 0.982061 -0.185846 0.031896
58.497974 -8.607032 -137.366989 0.980605 -0.192241 0.038175
57.911972 -10.734032 -134.628983 0.970104 -0.236684 0.053648
57.182972 -12.773031 -131.962982 0.955074 -0.286837 0.074547
56.308968 -14.708032 -129.374985 0.935960 -0.337663 0.099813
55.286968 -16.524031 -126.866982 0.912199 -0.388673 0.129717
54.115971 -18.210030 -124.441994 0.883199 -0.439193 0.164523
52.795971 -19.751032 -122.103981 0.848452 -0.488296 0.204195
51.329971 -21.135033 -119.855988 0.807529 -0.534900 0.248555
49.719967 -22.350033 -117.699982 0.759786 -0.578097 0.297540
47.967964 -23.385033 -115.638992 0.705456 -0.616136 0.350296
46.079967 -24.230032 -113.674004 0.645581 -0.647200 0.405410
44.063965 -24.879032 -111.806992 0.580777 -0.670375 0.461839
41.925964 -25.325033 -110.037987 0.512264 -0.684820 0.518273
39.673965 -25.561033 -108.369003 0.442159 -0.689998 0.573060
37.316967 -25.586033 -106.796989 0.372932 -0.686003 0.624757
34.866962 -25.401030 -105.323990 0.306462 -0.673647 0.672519
32.332962 -25.005030 -103.944992 0.243782 -0.653952 0.716182
29.725964 -24.399031 -102.660004 0.186697 -0.628157 0.755356
27.057962 -23.590031 -101.464996 0.136527 -0.598210 0.789623
24.339962 -22.586031 -100.356003 0.093232 -0.565084 0.819749
21.585962 -21.392031 -99.328003 0.056754 -0.529345 0.846506
18.804962 -20.016031 -98.377998 0.027215 -0.492010 0.870164
16.009962 -18.467030 -97.500000 0.004631 -0.453728 0.891128
13.210962 -16.757030 -96.689003 -0.011273 -0.415252 0.909637
10.417962 -14.896030 -95.939003 -0.020704 -0.376741 0.926087
7.642962 -12.897031 -95.242996 -0.023902 -0.338870 0.940530
4.896962 -10.773030 -94.593010 -0.021258 -0.302190 0.953011
2.187962 -8.535030 -93.981010 -0.013127 -0.266557 0.963730
-0.500038 -6.198030 -93.400009 0.000119 -0.237945 0.971279
-3.188038 -8.535030 -93.981010 0.013356 -0.266738 0.963677
-5.897037 -10.772031 -94.592010 0.021585 -0.302202 0.953000
-8.643037 -12.896029 -95.241005 0.024177 -0.339020 0.940469
-11.418036 -14.895030 -95.937004 0.020839 -0.376909 0.926016
-14.211037 -16.756031 -96.687012 0.011385 -0.415228 0.909646
-17.010036 -18.467028 -97.498016 -0.004532 -0.453833 0.891075
-19.805037 -20.016029 -98.376015 -0.027072 -0.492130 0.870101
-22.586035 -21.392029 -99.326012 -0.056661 -0.529484 0.846426
-25.340034 -22.586029 -100.354012 -0.093298 -0.565207 0.819656
-28.058035 -23.590029 -101.464012 -0.136553 -0.596252 0.791099
-30.726034 -24.400028 -102.658012 -0.188109 -0.626571 0.756323
-33.333035 -25.008028 -103.941017 -0.242994 -0.653286 0.717057
-35.867031 -25.407028 -105.317017 -0.305674 -0.673189 0.673335
-38.317032 -25.595028 -106.789017 -0.372361 -0.685771 0.625353
-40.674030 -25.571028 -108.359016 -0.441809 -0.689983 0.573349
-42.926029 -25.336029 -110.028023 -0.511877 -0.684895 0.518555
-45.064030 -24.892029 -111.796021 -0.580479 -0.670487 0.462052
-47.080032 -24.244026 -113.663017 -0.645353 -0.647323 0.405577
-48.968025 -23.400026 -115.628021 -0.705368 -0.616162 0.350428
-50.720028 -22.366026 -117.689034 -0.759693 -0.578170 0.297634
-52.330029 -21.152027 -119.846024 -0.807410 -0.535069 0.248576
-53.796028 -19.769026 -122.094017 -0.848352 -0.488471 0.204193
-55.116024 -18.229027 -124.433022 -0.883141 -0.439309 0.164531
-56.287022 -16.544027 -126.858017 -0.912165 -0.388725 0.129801
-57.309021 -14.729027 -129.368027 -0.935945 -0.337681 0.099892
-58.183018 -12.795026 -131.957031 -0.955435 -0.285898 0.073533
-58.912018 -10.757026 -134.873032 -0.970207 -0.236293 0.053518
-59.498020 -8.628026 -137.362030 -0.981540 -0.187814 0.036135
-59.945015 -6.888026 -143.237030 -0.990213 -0.138185 0.019592
-60.257015 -4.858025 -149.235031 -0.995829 -0.090847 0.008410
-60.440010 -2.565025 -155.331024 -0.999084 -0.042765 0.001621
-60.425011 -2.990025 -161.500031 -0.998554 -0.053765 -0.000091
-60.433010 -2.688025 -161.500031 -0.999664 -0.025912 0.000125
-60.246010 -5.397025 -161.500031 -0.997214 -0.074572 -0.002007
-60.321003 4.630976 -181.500015 -0.989787 0.067317 -0.125659
-60.440010 2.807975 -155.203018 -0.999087 0.042695 -0.001747
-60.304008 4.628975 -161.500031 -0.997435 0.071573 -0.000736
-60.430008 2.894975 -161.500031 -0.998831 0.048336 -0.001084
-58.912010 13.823976 -154.941025 -0.974863 0.222669 -0.007755
-59.357006 11.652975 -161.500015 -0.980452 0.196743 -0.002669
-59.498013 11.032975 -155.008026 -0.984506 0.175243 -0.006152
-59.498016 11.418974 -148.470032 -0.982943 0.183350 -0.014327
-60.257023 0.647973 -121.526016 -0.994746 -0.097551 0.031059
-60.440025 4.252973 -118.078033 -0.998477 -0.052319 0.017524
-60.440022 2.376974 -124.187019 -0.998767 -0.047753 0.013549
-60.500023 4.998973 -123.817017 -1.000000 -0.000167 0.000297
-60.500019 3.439974 -130.063034 -1.000000 -0.000132 0.000260
-60.440018 6.083974 -129.755020 -0.998857 0.046718 -0.010063
-60.257019 7.518974 -135.860031 -0.995593 0.092498 -0.015452
-60.440018 4.837974 -136.109024 -0.998912 0.045994 -0.007763
-60.257015 6.576974 -142.295029 -0.995747 0.091436 -0.011256
-59.945015 9.306974 -142.104019 -0.990305 0.137906 -0.016672
-59.945015 8.650974 -148.600021 -0.990531 0.136853 -0.010901
-59.945011 8.259975 -155.074020 -0.991656 0.128823 -0.004812
-60.257015 5.911975 -148.729019 -0.995849 0.090725 -0.007336
-60.440014 3.881974 -142.484024 -0.998950 0.045468 -0.005632
-60.500019 2.176974 -136.357025 -1.000000 -0.000095 0.000229
-60.440018 0.796974 -130.372025 -0.998832 -0.047032 0.011098
-60.257023 -0.266026 -124.560020 -0.994987 -0.096200 0.027317
-59.945023 -2.018026 -121.937019 -0.987972 -0.147106 0.047657
-59.945026 -1.016027 -118.959023 -0.987414 -0.149180 0.052527
-59.498028 -3.697027 -119.407021 -0.977223 -0.199630 0.071990
-59.498028 -2.606027 -116.490021 -0.976041 -0.202698 0.079106
-58.912025 -5.289027 -116.976021 -0.961931 -0.253738 0.101521
-58.912025 -4.108027 -114.126022 -0.959724 -0.258002 0.111198
-58.183025 -6.781027 -114.647034 -0.941171 -0.309000 0.136809
-58.183025 -5.509027 -111.870033 -0.937382 -0.314534 0.149614
-57.309025 -8.161027 -112.427017 -0.913862 -0.364815 0.178229
-57.309029 -6.798027 -109.727020 -0.907922 -0.371296 0.194467
-56.287029 -9.419027 -110.318024 -0.878805 -0.420235 0.226061
-56.287029 -7.966027 -107.703033 -0.869876 -0.427544 0.246011
-55.116032 -10.544027 -108.326019 -0.834955 -0.473697 0.280112
-55.116032 -9.003028 -105.799026 -0.822110 -0.481386 0.303979
-53.796032 -11.526028 -106.453033 -0.781738 -0.523019 0.339613
-53.796032 -9.898027 -104.021027 -0.764080 -0.530301 0.367372
-52.330032 -12.357028 -104.702026 -0.718877 -0.566105 0.403412
-52.330032 -10.644028 -102.371033 -0.695864 -0.571832 0.434490
-50.720032 -13.027028 -103.075020 -0.646740 -0.600895 0.469737
-50.720032 -11.232028 -100.849022 -0.618198 -0.603864 0.503169
-48.968029 -13.530027 -101.573021 -0.567236 -0.625108 0.536174
-48.968033 -11.657027 -99.456024 -0.533377 -0.624221 0.570839
-47.080036 -13.860027 -100.196022 -0.483140 -0.637396 0.600251
-47.080036 -11.913029 -98.193024 -0.445879 -0.632155 0.633697
-45.064034 -14.013028 -98.944023 -0.398696 -0.637953 0.658831
-45.064034 -12.000029 -97.053024 -0.360202 -0.628914 0.689000
-42.926033 -13.990028 -97.810020 -0.317228 -0.628457 0.710217
-42.926033 -11.923029 -96.033020 -0.277597 -0.615357 0.737750
-40.674034 -13.793029 -96.791023 -0.240326 -0.609906 0.755154
-40.674034 -11.676028 -95.133026 -0.200132 -0.592337 0.780438
-38.317036 -13.422029 -95.886024 -0.169661 -0.583140 0.794457
-38.317036 -11.258029 -94.349022 -0.129860 -0.561592 0.817160
-35.867035 -12.874028 -95.092026 -0.106289 -0.549910 0.828433
-35.867035 -10.668029 -93.678024 -0.068450 -0.525239 0.848197
-33.333035 -12.151029 -94.404015 -0.051755 -0.512351 0.857215
-33.333035 -9.908029 -93.112015 -0.016220 -0.484905 0.874417
-30.726036 -11.254029 -93.815018 -0.005897 -0.471534 0.881828
-30.726036 -8.979030 -92.647018 0.026759 -0.442058 0.896587
-28.058037 -10.189030 -93.320015 0.030713 -0.428840 0.902858
-28.058037 -7.889029 -92.275017 0.060243 -0.397995 0.915408
-25.340036 -8.964029 -92.911018 0.058830 -0.385305 0.920912
-25.340036 -6.643030 -91.986015 0.085047 -0.353583 0.931529
-22.586037 -7.584030 -92.580017 0.078743 -0.341840 0.936453
-22.586037 -5.248030 -91.772018 0.101578 -0.309765 0.945372
-19.805037 -6.057030 -92.315018 0.090838 -0.299046 0.949905
-19.805038 -3.710030 -91.620018 0.110561 -0.266448 0.957487
-17.010038 -4.392030 -92.108017 0.095788 -0.257048 0.961640
-17.010038 -2.042030 -91.523018 0.112503 -0.223357 0.968223
-14.211038 -2.602030 -91.948006 0.106964 -0.223077 0.968914
-14.211038 -0.260030 -91.474007 0.106948 -0.186662 0.976586
-11.418037 -0.703030 -91.833008 0.090025 -0.196523 0.976358
-11.418037 1.727970 -91.415009 0.091049 -0.180200 0.979407
-8.643037 1.395970 -91.700005 0.068094 -0.175365 0.982146
-8.643038 3.896970 -91.225006 0.069119 -0.201141 0.977121
-5.897038 3.668970 -91.433006 0.045941 -0.197844 0.979156
-5.897038 6.162970 -90.891006 0.046295 -0.226377 0.972939
-3.188038 6.031970 -91.018005 0.023047 -0.224642 0.974169
-3.188038 8.523970 -90.406006 0.023012 -0.252605 0.967296
-0.500038 8.481970 -90.449005 0.000046 -0.247583 0.968867
-0.500038 10.967970 -89.763008 -0.000152 -0.275523 0.961295
2.187962 8.523970 -90.406006 -0.023221 -0.252971 0.967195
2.187962 6.030970 -91.019005 -0.022957 -0.224589 0.974183
4.896961 6.161969 -90.892006 -0.046250 -0.226461 0.972922
4.896961 3.668969 -91.433006 -0.045604 -0.190509 0.980626
7.642961 3.896969 -91.224998 -0.069019 -0.195348 0.978302
59.439980 2.828970 -155.199982 0.999057 0.043383 -0.001893
59.302986 4.628970 -161.499985 0.997247 0.074146 -0.000809
59.256981 5.535969 -155.134979 0.996541 0.083019 -0.003643
58.944969 -2.923032 -124.946983 0.988065 -0.147952 0.042869
58.497971 -6.490031 -128.316986 0.979922 -0.192135 0.053266
58.944973 -4.544032 -131.003983 0.988875 -0.144645 0.034707
59.256973 -1.844031 -130.688980 0.995277 -0.094415 0.022560
59.256973 -3.143031 -136.858978 0.995528 -0.092825 0.017520
59.439972 -0.461031 -136.608978 0.998894 -0.046224 0.008634
59.439976 -1.448031 -142.861984 0.998938 -0.045631 0.006346
59.499977 1.224969 -142.674988 1.000000 -0.000068 0.000205
59.499977 0.540969 -148.983978 1.000000 -0.000043 0.000187
59.439976 3.222970 -148.857986 0.998975 0.045127 -0.003624
59.196983 6.019970 -161.499985 0.994671 0.103077 -0.002165
58.944981 8.279969 -155.069977 0.991538 0.129721 -0.004993
59.256977 5.925970 -148.730988 0.995849 0.090728 -0.007303
59.439976 3.897969 -142.487976 0.998949 0.045477 -0.005659
59.499973 2.198969 -136.361984 1.000000 -0.000096 0.000226
59.439972 0.819969 -130.377975 0.998832 -0.047031 0.011095
59.256969 -0.245032 -124.568977 0.994987 -0.096207 0.027305
58.944969 -1.997032 -121.946983 0.987973 -0.147099 0.047648
58.497971 -4.692032 -122.361977 0.978255 -0.196862 0.065289
58.497971 -3.677032 -119.417976 0.977235 -0.199584 0.071961
57.911968 -6.375032 -119.868988 0.963837 -0.249975 0.092366
57.911964 -5.270032 -116.986977 0.961930 -0.253736 0.101533
57.182964 -7.959032 -117.473984 0.944415 -0.304146 0.124804
57.182964 -6.762032 -114.659988 0.941186 -0.308964 0.136787
56.308964 -9.432033 -115.179993 0.919037 -0.358879 0.163024
56.308964 -8.143032 -112.439987 0.913918 -0.364706 0.178167
55.286964 -10.782032 -112.992981 0.886586 -0.413493 0.207338
55.286964 -9.402033 -110.330994 0.878883 -0.420124 0.225964
54.115967 -11.999032 -110.916977 0.846125 -0.466544 0.257699
54.115967 -10.528032 -108.338982 0.835051 -0.473623 0.279949
52.795967 -13.071033 -108.953987 0.797148 -0.516088 0.313382
52.795963 -11.512033 -106.465988 0.781960 -0.522917 0.339258
51.329964 -13.991033 -107.106987 0.739233 -0.560315 0.373607
51.329964 -12.344032 -104.713982 0.719200 -0.566015 0.402961
49.719963 -14.747032 -105.378983 0.672314 -0.597372 0.437197
49.719963 -13.016032 -103.085983 0.647267 -0.600873 0.469039
47.967960 -15.333033 -103.769989 0.597913 -0.625062 0.501794
47.967960 -13.521032 -101.581993 0.567977 -0.625308 0.535156
46.079964 -15.743032 -102.281990 0.518609 -0.641766 0.564961
46.079964 -13.854033 -100.202003 0.484377 -0.637834 0.598788
44.063961 -15.973032 -100.913986 0.436889 -0.646931 0.624986
44.063961 -14.011032 -98.946991 0.399538 -0.638444 0.657845
41.925961 -16.018032 -99.663994 0.355576 -0.641064 0.680149
41.925961 -13.989033 -97.811989 0.317321 -0.628569 0.710076
39.673962 -15.878033 -98.530991 0.278314 -0.625932 0.728526
39.673962 -13.793033 -96.793991 0.240272 -0.609762 0.755287
37.316963 -15.557032 -97.508995 0.207407 -0.603058 0.770262
37.316963 -13.422032 -95.889992 0.169612 -0.583034 0.794546
34.866962 -15.056031 -96.594994 0.143094 -0.573443 0.806652
34.866962 -12.875031 -95.095993 0.106328 -0.549820 0.828488
32.332962 -14.375031 -95.785995 0.086330 -0.538504 0.838189
32.332962 -12.152032 -94.408989 0.051640 -0.512120 0.857360
29.725960 -13.514031 -95.075989 0.038266 -0.499943 0.865213
29.725960 -11.255032 -93.819992 0.006138 -0.471383 0.881907
27.057961 -12.481031 -94.459000 -0.001360 -0.459086 0.888391
27.057961 -10.191031 -93.324997 -0.030591 -0.428710 0.902924
24.339960 -11.280031 -93.930000 -0.032607 -0.416805 0.908411
24.339960 -8.966031 -92.916000 -0.058782 -0.385341 0.920900
21.585960 -9.920032 -93.481003 -0.055613 -0.374061 0.925735
21.585960 -7.585032 -92.584000 -0.078567 -0.342015 0.936404
18.804960 -8.406032 -93.100998 -0.070420 -0.331438 0.940845
18.804960 -6.057032 -92.318001 -0.090664 -0.299252 0.949857
16.009962 -6.749031 -92.782997 -0.078885 -0.289614 0.953887
16.009960 -4.390031 -92.109001 -0.095563 -0.257305 0.961593
13.210961 -4.959031 -92.514999 -0.080304 -0.249557 0.965025
13.210961 -2.598031 -91.947998 -0.094128 -0.215507 0.971955
10.417961 -3.049031 -92.291000 -0.075508 -0.208995 0.974997
10.417961 -0.701031 -91.832001 -0.085473 -0.185937 0.978837
7.642961 -1.039031 -92.105003 -0.063850 -0.180979 0.981412
2.187962 1.027969 -92.017006 -0.024455 -0.171754 0.984836
4.896962 -1.276031 -92.296005 -0.043951 -0.175526 0.983493
7.642961 -3.392031 -92.552002 -0.056458 -0.204006 0.977340
10.417961 -5.416031 -92.842003 -0.064485 -0.243119 0.967851
13.210961 -7.326031 -93.169998 -0.066818 -0.282216 0.957021
16.009962 -9.123656 -93.543999 -0.062201 -0.322941 0.944373
18.804962 -10.752031 -93.973000 -0.050685 -0.364642 0.929767
21.585962 -12.247031 -94.467003 -0.032660 -0.406142 0.913226
24.339962 -13.584031 -95.035004 -0.006570 -0.447886 0.894067
27.057962 -14.755032 -95.682999 0.027475 -0.488639 0.872053
29.725962 -15.753032 -96.418991 0.069698 -0.527577 0.846643
32.332962 -16.572033 -97.248993 0.120118 -0.563735 0.817175
34.866962 -17.208033 -98.176994 0.178356 -0.595636 0.783203
37.316963 -17.658033 -99.207993 0.243330 -0.621774 0.744438
39.673962 -17.924032 -100.344994 0.314982 -0.641385 0.699580
41.925961 -17.998032 -101.592987 0.392040 -0.652746 0.648249
44.063961 -17.880032 -102.954987 0.471307 -0.653961 0.591781
46.079964 -17.574032 -104.431992 0.549561 -0.644450 0.531664
47.967960 -17.083033 -106.023987 0.624739 -0.624115 0.469236
49.719967 -16.412033 -107.732986 0.694473 -0.593633 0.406580
51.329967 -15.568032 -109.556976 0.756723 -0.554753 0.345861
52.795967 -14.560033 -111.493988 0.810336 -0.509741 0.288999
54.115967 -13.396031 -113.541977 0.855749 -0.460059 0.236727
55.286964 -12.087031 -115.697983 0.893261 -0.407483 0.189849
56.308964 -10.644032 -117.958977 0.923452 -0.353682 0.148812
57.182968 -9.079032 -120.320976 0.947203 -0.299829 0.113613
57.911968 -7.403031 -122.778976 0.965487 -0.246607 0.083787
58.497971 -5.630032 -125.328987 0.977934 -0.199722 0.061289
57.911968 -8.354032 -125.713982 0.966914 -0.243635 0.075631
57.182968 -10.122031 -123.196983 0.949625 -0.295959 0.103056
56.308968 -11.779032 -120.771988 0.927273 -0.348972 0.135583
55.286964 -13.315031 -118.441994 0.899061 -0.401995 0.173463
54.115967 -14.718032 -116.210983 0.864110 -0.454093 0.217056
52.795967 -15.974031 -114.082977 0.821872 -0.503768 0.265976
51.329967 -17.074032 -112.060982 0.772022 -0.549394 0.319607
49.719967 -18.008032 -110.145988 0.714015 -0.589709 0.377394
47.967964 -18.766033 -108.342003 0.648632 -0.622645 0.437711
46.079964 -19.342031 -106.648987 0.577568 -0.646266 0.498754
44.063961 -19.729033 -105.067993 0.502642 -0.659738 0.558657
41.925961 -19.923033 -103.597992 0.425860 -0.662898 0.615799
39.673962 -19.920033 -102.238991 0.350180 -0.655897 0.668710
37.316963 -19.721033 -100.987991 0.278157 -0.639669 0.716556
34.866962 -19.325033 -99.842995 0.212110 -0.616479 0.758263
32.332962 -18.740032 -98.797989 0.152689 -0.587790 0.794474
29.725962 -17.966032 -97.849991 0.100425 -0.554329 0.826217
27.057962 -17.008032 -96.996002 0.055795 -0.517382 0.853933
24.339962 -15.872031 -96.230003 0.019135 -0.478251 0.878015
21.585962 -14.563031 -95.544998 -0.009869 -0.437855 0.898991
18.804962 -13.090032 -94.935997 -0.031275 -0.396877 0.917339
16.009962 -11.463032 -94.393997 -0.045510 -0.356542 0.933170
13.210961 -9.693031 -93.912003 -0.053225 -0.315951 0.947281
10.417962 -7.790031 -93.481003 -0.053541 -0.276406 0.959548
7.642961 -5.765031 -93.091003 -0.048330 -0.238250 0.970001
4.896962 -3.632031 -92.734009 -0.037476 -0.200528 0.978971
2.187962 -1.414031 -92.408005 -0.021031 -0.169590 0.985290
-0.500038 0.982970 -92.055008 0.000010 -0.165358 0.986234
-0.500038 3.491970 -91.595009 0.000000 -0.190351 0.981716
-3.188038 1.027970 -92.017006 0.022429 -0.169780 0.985227
-3.188038 -1.415030 -92.408005 0.021065 -0.169557 0.985295
-5.897038 -1.277030 -92.296005 0.042363 -0.171515 0.984270
-5.897038 -3.634030 -92.734009 0.037501 -0.200365 0.979003
-8.643037 -3.394030 -92.552010 0.042937 -0.195614 0.979741
-8.643037 -5.765030 -93.090004 0.048408 -0.238081 0.970038
-11.418037 -5.417030 -92.841011 0.059939 -0.226571 0.972149
-11.418037 -7.790030 -93.479004 0.053635 -0.276313 0.959570
-14.211038 -7.325030 -93.168015 0.066671 -0.282383 0.956982
-14.211038 -9.692030 -93.910019 0.052864 -0.315539 0.947439
-17.010036 -9.106030 -93.540016 0.062512 -0.322862 0.944379
-17.010036 -11.462029 -94.391014 0.045597 -0.355870 0.933423
-19.805037 -10.750030 -93.969017 0.051253 -0.364349 0.929851
-19.805037 -13.089029 -94.932014 0.031320 -0.396859 0.917345
-22.586037 -12.245029 -94.463013 0.032839 -0.406259 0.913168
-22.586037 -14.562030 -95.542015 0.009962 -0.437964 0.898938
-25.340036 -13.583030 -95.030014 0.006653 -0.447938 0.894040
-25.340036 -15.871030 -96.226013 -0.019001 -0.478415 0.877928
-28.058037 -14.754029 -95.679016 -0.027510 -0.488742 0.871995
-28.058037 -17.008028 -96.993011 -0.055831 -0.517441 0.853896
-30.726036 -15.753029 -96.416016 -0.069712 -0.527741 0.846540
-30.726034 -17.966028 -97.847015 -0.100511 -0.554450 0.826125
-33.333035 -16.572029 -97.246017 -0.120140 -0.563927 0.817039
-33.333035 -18.740028 -98.796013 -0.152637 -0.587849 0.794441
-35.867035 -17.208029 -98.175026 -0.178310 -0.595711 0.783157
-35.867035 -19.326029 -99.840019 -0.211906 -0.616411 0.758376
-38.317036 -17.659029 -99.206024 -0.243242 -0.621642 0.744577
-38.317036 -19.722029 -100.985023 -0.277544 -0.639240 0.717177
-40.674034 -17.926029 -100.343033 -0.314315 -0.640888 0.700334
-40.674034 -19.925028 -102.233017 -0.349232 -0.655227 0.669861
-42.926033 -18.003029 -101.588020 -0.391059 -0.652158 0.649432
-42.926029 -19.930029 -103.590019 -0.425102 -0.662478 0.616775
-45.064030 -17.888029 -102.947021 -0.470374 -0.653702 0.592808
-45.064030 -19.739029 -105.058022 -0.502100 -0.659551 0.559364
-47.080032 -17.584028 -104.422020 -0.549046 -0.644400 0.532257
-47.080032 -19.353029 -106.638023 -0.577214 -0.646253 0.499181
-48.968029 -17.095028 -106.013023 -0.624300 -0.624159 0.469761
-48.968029 -18.779026 -108.330017 -0.648283 -0.622752 0.438075
-50.720032 -16.426027 -107.721024 -0.694167 -0.593746 0.406939
-50.720032 -18.022026 -110.134033 -0.713808 -0.589825 0.377604
-52.330032 -15.583028 -109.544022 -0.756573 -0.554878 0.345988
-52.330029 -17.090027 -112.049026 -0.771902 -0.549460 0.319782
-53.796028 -14.575027 -111.482033 -0.810275 -0.509792 0.289079
-53.796028 -15.991028 -114.071022 -0.821822 -0.503785 0.266101
-55.116028 -13.413027 -113.530022 -0.855670 -0.460138 0.236857
-55.116028 -14.735026 -116.200020 -0.864080 -0.454156 0.217045
-56.287025 -12.105026 -115.686020 -0.893203 -0.407576 0.189922
-56.287025 -13.333027 -118.431023 -0.898997 -0.402117 0.173513
-57.309025 -10.663027 -117.948021 -0.923425 -0.353747 0.148828
-57.309025 -11.798027 -120.762016 -0.927265 -0.348998 0.135575
-58.183025 -9.098026 -120.310020 -0.947194 -0.299869 0.113590
-58.183022 -10.141026 -123.188026 -0.949605 -0.296001 0.103122
-58.912022 -7.423027 -122.769020 -0.965470 -0.246655 0.083836
-58.912022 -8.375027 -125.705017 -0.966901 -0.243661 0.075713
-59.498024 -5.651026 -125.320023 -0.977930 -0.199727 0.061330
-59.498024 -6.512026 -128.310028 -0.979919 -0.192135 0.053310
-59.945023 -2.944026 -124.938026 -0.988062 -0.147965 0.042890
-59.498024 -4.712027 -122.352020 -0.978246 -0.196899 0.065313
-58.912025 -6.394027 -119.858017 -0.963830 -0.249997 0.092380
-58.183025 -7.978027 -117.462021 -0.944407 -0.304174 0.124797
-57.309025 -9.450027 -115.168022 -0.918986 -0.358979 0.163089
-56.287025 -10.799026 -112.981033 -0.886526 -0.413586 0.207410
-55.116028 -12.015028 -110.904022 -0.846047 -0.466669 0.257729
-53.796032 -13.087028 -108.941017 -0.797040 -0.516180 0.313505
-52.330032 -14.005028 -107.094017 -0.738972 -0.560385 0.374017
-50.720032 -14.759027 -105.367020 -0.671915 -0.597439 0.437716
-48.968029 -15.344028 -103.760033 -0.597430 -0.625049 0.502385
-47.080032 -15.752028 -102.273033 -0.517741 -0.641585 0.565962
-45.064034 -15.978028 -100.908020 -0.435691 -0.646476 0.626292
-42.926033 -16.020029 -99.661026 -0.354818 -0.640664 0.680921
-40.674034 -15.878029 -98.528023 -0.278159 -0.625857 0.728650
-38.317036 -15.557029 -97.506020 -0.207444 -0.603222 0.770124
-35.867035 -15.056028 -96.591026 -0.143066 -0.573603 0.806543
-33.333035 -14.374028 -95.782013 -0.086346 -0.538658 0.838088
-30.726036 -13.513028 -95.071014 -0.038151 -0.500098 0.865128
-28.058037 -12.479030 -94.455017 0.001402 -0.459110 0.888378
-25.340036 -11.278029 -93.925018 0.032607 -0.416861 0.908385
-22.586037 -9.918030 -93.476013 0.055784 -0.374098 0.925710
-19.805037 -8.404030 -93.097015 0.071086 -0.331606 0.940736
-17.010036 -6.748030 -92.780014 0.079238 -0.289945 0.953758
-14.211038 -4.960030 -92.514008 0.089168 -0.241032 0.966412
-11.418037 -3.052030 -92.416008 0.075234 -0.208632 0.975096
-8.643037 -1.041030 -92.106010 0.055397 -0.183481 0.981461
-5.897038 1.163970 -91.900009 0.045260 -0.171886 0.984077
-3.188038 3.535970 -91.555008 0.022836 -0.195931 0.980352
-0.500038 5.988969 -91.060005 0.000092 -0.219264 0.975666
2.187962 3.535969 -91.555008 -0.020702 -0.198359 0.979911
-60.257019 -1.867026 -130.682022 -0.995277 -0.094418 0.022565
-60.440018 -0.484026 -136.604019 -0.998894 -0.046227 0.008610
-60.500015 1.208974 -142.671021 -1.000000 -0.000066 0.000202
-60.440014 3.208975 -148.856018 -0.998975 0.045123 -0.003644
-60.257011 5.515975 -155.139023 -0.996612 0.082177 -0.003408
-60.216007 5.830975 -161.500031 -0.994917 0.100680 -0.001793
-59.933006 8.140975 -161.500031 -0.992394 0.123048 -0.003551
-60.248009 5.396975 -161.500031 -0.997322 0.073130 -0.000970
-60.500015 0.526975 -148.982025 -1.000000 -0.000043 0.000181
-60.440014 -1.464026 -142.858032 -0.998938 -0.045631 0.006311
-60.257019 -3.165026 -136.854019 -0.995529 -0.092825 0.017466
-59.945019 -4.567026 -130.997025 -0.988875 -0.144643 0.034711
-59.498020 -7.296026 -131.315033 -0.979469 -0.195496 0.049209
-58.912022 -9.248027 -128.662033 -0.968139 -0.241009 0.067983
-58.183022 -11.106027 -126.090019 -0.951690 -0.292595 0.093137
-57.309021 -12.855026 -123.605026 -0.930577 -0.344795 0.123053
-56.287025 -14.484027 -121.211021 -0.904027 -0.397136 0.158170
-55.116028 -15.979027 -118.910027 -0.871358 -0.448668 0.198577
-53.796028 -17.330027 -116.706017 -0.831938 -0.498223 0.244239
-52.330029 -18.522026 -114.603020 -0.785282 -0.544435 0.294827
-50.720028 -19.547028 -112.603020 -0.731085 -0.585889 0.349642
-48.968029 -20.394026 -110.708023 -0.669639 -0.620770 0.407711
-47.080032 -21.055029 -108.920021 -0.602454 -0.647196 0.467105
-45.064030 -21.525028 -107.239021 -0.530901 -0.664244 0.526235
-42.926029 -21.798029 -105.667023 -0.456572 -0.671323 0.583838
-40.674030 -21.868029 -104.201019 -0.382330 -0.668383 0.638035
-38.317036 -21.737028 -102.842033 -0.310822 -0.656085 0.687708
-35.867035 -21.404028 -101.587021 -0.244209 -0.636204 0.731851
-33.333035 -20.873028 -100.429024 -0.183715 -0.610573 0.770356
-30.726034 -20.149029 -99.367012 -0.130211 -0.580113 0.804061
-28.058035 -19.236029 -98.395012 -0.083603 -0.545493 0.833935
-25.340036 -18.138029 -97.512016 -0.044312 -0.508007 0.860213
-22.586037 -16.862028 -96.712013 -0.012673 -0.468964 0.883126
-19.805037 -15.416030 -95.987015 0.011555 -0.429116 0.903175
-17.010036 -13.810030 -95.333015 0.028778 -0.388895 0.920833
-14.211038 -12.055030 -94.742012 0.038999 -0.348836 0.936372
-11.418037 -10.163030 -94.207008 0.042768 -0.309698 0.949873
-8.643037 -8.143030 -93.717010 0.040376 -0.271733 0.961525
-5.897038 -6.009030 -93.264008 0.032152 -0.234826 0.971506
-3.188038 -3.774030 -92.841011 0.018614 -0.198322 0.979960
-0.500038 -1.460031 -92.445007 0.000032 -0.172647 0.984984
2.187962 -3.773031 -92.841011 -0.018533 -0.198475 0.979931
4.896962 -6.008030 -93.265007 -0.032131 -0.234944 0.971478
7.642962 -8.143030 -93.718002 -0.040250 -0.271802 0.961511
